# .PCD v0.7 - Point Cloud Data file format
VERSION 0.7
FIELDS x y z
SIZE 4 4 4
TYPE F F F
COUNT 1 1 1
WIDTH 273
HEIGHT 1
VIEWPOINT 0 0 0 1 0 0 0
POINTS 273
DATA ascii
-0.10398147 -0.021677621 0.27796566
-0.094944172 -0.021998944 0.27731425
-0.085026108 -0.021880962 0.27703422
-0.075006299 -0.021846982 0.27703288
-0.065006211 -0.021623787 0.27688599
-0.055038381 -0.02157395 0.27709931
-0.04513124 -0.021328129 0.27684113
-0.034669999 -0.021797884 0.27641481
-0.025294388 -0.021791121 0.27632555
-0.015036836 -0.021525946 0.27615491
-0.0048554796 -0.021546355 0.27672464
0.0049264608 -0.021331951 0.27674079
0.01375926 -0.021013234 0.27738708
0.02461713 -0.020250769 0.27886671
-0.11164571 -0.014172289 0.27899987
-0.10479093 -0.014835688 0.27763513
-0.094946466 -0.014800998 0.27683312
-0.085093752 -0.014826329 0.27659428
-0.074937373 -0.014879421 0.27629831
-0.064821213 -0.014806516 0.276191
-0.054835334 -0.01478495 0.2758069
-0.044874176 -0.014764817 0.27541944
-0.03494893 -0.015028214 0.27522048
-0.025049873 -0.015021307 0.27479774
-0.015179581 -0.015014028 0.27464101
-0.0050302986 -0.015004944 0.27444774
0.0051053558 -0.014996755 0.27429438
0.014880127 -0.014882518 0.27427766
0.025007743 -0.014658535 0.27403316
0.035075709 -0.014708685 0.27389663
0.044857774 -0.01449209 0.2736811
0.054747146 -0.014477699 0.27317283
0.064959623 -0.014242546 0.27341631
0.074286878 -0.013702185 0.27603811
0.080000773 -0.010467235 0.27700001
-0.1113205 -0.0092667565 0.27900001
-0.10494022 -0.0088311844 0.27900001
-0.09428785 -0.0083786994 0.27871943
-0.084901065 -0.0080904486 0.27871418
-0.074750811 -0.0071826894 0.27855828
-0.065013379 -0.0064341878 0.27832815
-0.05493344 -0.0061992304 0.27821481
-0.044905797 -0.0056270943 0.277996
-0.034876809 -0.005255911 0.27784696
-0.024980247 -0.0049115447 0.27764243
-0.014889806 -0.0049805208 0.27742437
-0.0047877594 -0.0049036676 0.27710745
0.0051487195 -0.0048963679 0.2766718
0.015062634 -0.0048916242 0.27639499
0.024981739 -0.0049232808 0.27582237
0.035001598 -0.004895912 0.2753104
0.045045756 -0.0047984454 0.27487838
0.055061255 -0.005129728 0.27431956
0.064871356 -0.0050320406 0.27383098
0.074638374 -0.0048026741 0.27479264
0.080153964 -0.0050112633 0.27731577
-0.022487503 0.00035272533 0.27900001
-0.014320757 0.00060793606 0.27899992
-0.003960182 0.00097848254 0.27900007
0.005095582 0.0016471033 0.27898884
0.015598091 0.0019169818 0.27871409
0.025609383 0.0031244035 0.27849683
0.035210665 0.004006342 0.27814457
0.045217849 0.0045820279 0.27806503
0.055122651 0.0049260431 0.27775964
0.065007344 0.005025601 0.27730954
0.074685164 0.0049836673 0.27722827
0.080000773 0.00064255984 0.27700001
0.057903897 0.010364839 0.27900001
0.066656321 0.010855628 0.27899998
0.073944978 0.010891791 0.27900001
-0.11074884 -0.021393867 0.28007141
-0.10424788 -0.025136452 0.28201365
-0.095230199 -0.025914887 0.28422058
-0.084970422 -0.02566026 0.28376463
-0.11371179 -0.014938958 0.28004354
0.046933763 -0.019763162 0.28029999
0.055298463 -0.019750766 0.28105563
0.064981639 -0.019557845 0.28158829
0.073249027 -0.019174062 0.28130776
-0.1133531 -0.0043852371 0.28143904
-0.10499488 -0.0038303917 0.28106421
-0.095352337 -0.0035741697 0.28072801
-0.08519689 -0.003136327 0.28051344
-0.075457513 -0.0022998489 0.28032562
-0.065189332 -0.0014742279 0.28006995
-0.055483688 -0.0012594414 0.28000009
-0.045532897 -0.00068396749 0.28
-0.035985138 -0.00035528108 0.28000003
-0.11366437 0.0049033654 0.28450528
-0.10505962 0.0048769363 0.28425696
-0.09494295 0.0050733224 0.28366923
-0.085040361 0.0050918511 0.28313664
-0.074939683 0.0051421402 0.28259689
-0.064894296 0.0050751474 0.28230932
-0.054979067 0.0051856446 0.28201401
-0.045045186 0.0051034107 0.28162158
-0.035094529 0.0050647943 0.28144532
-0.025132746 0.005270598 0.28138885
-0.015007886 0.0056331474 0.28119263
-0.0050272401 0.0059280335 0.28104532
0.005197973 0.0066418573 0.28075352
0.014870294 0.0069003794 0.28072637
0.024328971 0.0079918327 0.28031054
0.034450017 0.0090101426 0.27999997
0.043591097 0.0094759958 0.28000009
0.051609796 0.009810932 0.28
-0.11369955 0.014773818 0.28781006
-0.10496351 0.014735325 0.28753889
-0.094975196 0.015078235 0.28722104
-0.084933572 0.01518927 0.2867558
-0.074962318 0.015184004 0.28611559
-0.064968534 0.015102328 0.28563249
-0.054982565 0.01515218 0.28546587
-0.045013815 0.015088273 0.2851598
-0.035002299 0.015109324 0.28498906
-0.02503559 0.0151092 0.28475478
-0.015062047 0.015030514 0.28434199
-0.0049078516 0.015058863 0.2840628
0.0049782288 0.015035038 0.28359786
0.014841231 0.015018933 0.28332353
0.024933286 0.0149756 0.28248122
0.035001744 0.014945912 0.28191885
0.045012273 0.014899734 0.28136867
0.054870769 0.014971456 0.28112641
0.064766303 0.015467362 0.28112403
0.074753404 0.015638461 0.28118107
-0.093709365 0.021122565 0.28899986
-0.08477363 0.021731211 0.28898767
-0.074511871 0.022186173 0.28871679
-0.064893134 0.022633616 0.28844589
-0.054903146 0.023115825 0.28830153
-0.044945747 0.023494447 0.28812835
-0.03492539 0.02391034 0.28817096
-0.024749868 0.024317957 0.28789183
-0.014988263 0.024965616 0.28765646
-0.0049632364 0.024932787 0.28727973
0.0050351932 0.024897674 0.28687486
0.015004031 0.024858981 0.28642657
0.025078073 0.02472936 0.28577289
0.034992758 0.024823442 0.28537017
0.04497911 0.02472537 0.28469434
0.055060346 0.024846599 0.28450939
0.064984314 0.025001153 0.28445244
0.074263357 0.024871817 0.28461441
-0.01383762 0.030258171 0.289
-0.0040587615 0.030634971 0.28899992
0.0053400435 0.031189037 0.28896853
0.015268844 0.031843521 0.28868252
0.025270395 0.03236467 0.28849605
0.035099152 0.03270366 0.28827402
0.045101013 0.033446085 0.28798416
0.055159777 0.034550343 0.28786796
0.064964905 0.034967076 0.28765854
0.073958404 0.034817893 0.28797379
0.06485977 0.040019087 0.289
0.071875408 0.040019084 0.289
-0.11684748 0.019249665 0.28999999
-0.10662898 0.019956009 0.28999999
-0.1200821 0.029428981 0.296
-0.11408905 0.025066549 0.29129013
-0.10507912 0.024929091 0.29118091
-0.095243417 0.025981754 0.29090393
-0.085060373 0.026730061 0.29062325
-0.075286232 0.027226645 0.29052645
-0.065048441 0.027664084 0.2904422
-0.055246092 0.028118907 0.29036307
-0.045310788 0.02860577 0.29031187
-0.035254002 0.028889833 0.29000011
-0.02613814 0.02928694 0.28999999
0.080694482 0.020874266 0.29000002
-0.12048778 0.030782294 0.29700002
-0.11447112 0.034931779 0.29501289
-0.10501496 0.034877952 0.29469088
-0.094958477 0.035116285 0.29409781
-0.085008368 0.035071053 0.2934829
-0.074971944 0.035029393 0.2931594
-0.064974591 0.03502107 0.29300782
-0.054974973 0.034953337 0.2927742
-0.044929124 0.03492808 0.29254514
-0.034948625 0.034904875 0.29207897
-0.024971934 0.0349731 0.29163826
-0.015191372 0.035372231 0.29123595
-0.0051209605 0.035659634 0.2910426
0.0050173905 0.036288004 0.29088569
0.014719422 0.036965646 0.29074231
0.02473563 0.037398759 0.29043517
0.034955312 0.037858699 0.29034004
0.04457346 0.038481049 0.29009879
0.052198052 0.039147489 0.28999999
0.078146696 0.035465494 0.29015383
-0.11386868 0.044187758 0.29777944
-0.1049291 0.044677097 0.2979551
-0.094929233 0.044923875 0.29774666
-0.084919944 0.044971891 0.29730627
-0.07497064 0.044803105 0.29672647
-0.065047622 0.044839099 0.29653943
-0.055017803 0.044798609 0.29634565
-0.044970058 0.044773776 0.29595822
-0.034869734 0.044870291 0.29558697
-0.024995835 0.045081917 0.29530588
-0.014846046 0.045122556 0.2947914
-0.0047755777 0.04512687 0.29440376
0.005161752 0.045067586 0.294016
0.01507145 0.045009874 0.29363707
0.024971109 0.044919986 0.29316956
0.034982089 0.044810172 0.29268399
0.045046877 0.044840496 0.2922855
0.05505788 0.044688698 0.29160091
0.064951733 0.045035671 0.29146534
0.073698953 0.044913527 0.29199389
-0.091318741 0.050240159 0.29900002
-0.085007086 0.050240159 0.29900002
-0.073504075 0.050918676 0.29899988
-0.064560413 0.051366981 0.29881936
-0.054877359 0.051729895 0.29864448
-0.045007765 0.052219324 0.2985
-0.03497326 0.053375792 0.29842773
-0.024759527 0.054237973 0.29815567
-0.014817865 0.054590132 0.2980285
-0.0048115538 0.0550723 0.29788283
0.0052236668 0.05502947 0.297546
0.015146623 0.054872781 0.29705977
0.02505371 0.054865308 0.29660988
0.035006605 0.054775022 0.29623085
0.044968631 0.054767396 0.29608727
0.054935887 0.054723799 0.29590371
0.064997666 0.054816961 0.2958186
0.072995141 0.054294817 0.29608819
0.0055653136 0.06033881 0.29900005
0.015821768 0.060676929 0.29899994
0.025107196 0.061067086 0.29899985
0.035083305 0.061332133 0.29888052
0.044766013 0.061097633 0.29883623
0.05544753 0.061537135 0.29880512
0.064877957 0.061989095 0.29863361
0.071314201 0.060857378 0.2987273
-0.11378264 0.049356867 0.30030441
-0.10706495 0.049551401 0.30000001
-0.097007021 0.049774908 0.30000001
-0.11295317 0.054002281 0.30245292
-0.10486633 0.054914251 0.30168042
-0.095017143 0.055154141 0.30122811
-0.084942989 0.055420082 0.30119208
-0.075267322 0.055824012 0.30130583
-0.065078788 0.056479316 0.30106783
-0.055062722 0.056816895 0.30059838
-0.045074765 0.057306249 0.3004705
-0.035090167 0.058338419 0.3000277
-0.026026048 0.059193246 0.30000013
-0.015642596 0.059649333 0.30000007
-0.0096147312 0.059907343 0.30000001
-0.11053469 0.060261969 0.30500001
-0.10441276 0.06093676 0.30394992
-0.094263993 0.062169321 0.30345237
-0.084995143 0.062983647 0.30367476
-0.075119235 0.063042268 0.30355525
-0.064890914 0.063062146 0.30329019
-0.054808944 0.06284903 0.30285949
-0.044670559 0.063291416 0.30248997
-0.035171114 0.063701078 0.30189696
-0.024953097 0.063545093 0.30142534
-0.015094985 0.063692428 0.3011038
-0.0047682421 0.063849129 0.30104637
0.0048497515 0.064616904 0.30099961
0.014693788 0.065094285 0.30107906
0.024627091 0.06554015 0.30094087
0.034965791 0.065459736 0.30075198
0.045051504 0.065821528 0.30086836
0.054783471 0.066464201 0.30069706
0.063981846 0.065797128 0.30004281
0.071444772 0.062440455 0.30000001
-0.044647172 0.069000125 0.3125
