# .PCD v0.7 - Point Cloud Data file format
VERSION 0.7
FIELDS x y z
SIZE 4 4 4
TYPE F F F
COUNT 1 1 1
WIDTH 450
HEIGHT 1
VIEWPOINT 0 0 0 1 0 0 0
POINTS 450
DATA ascii
0.12864032 -0.12172624 0.28700003
0.13100053 -0.12189087 0.28505558
0.12885481 -0.11762697 0.28879312
0.13307875 -0.11494406 0.28899974
0.12686695 -0.12144689 0.29218748
0.12804775 -0.11439198 0.29226246
0.1314366 -0.11182731 0.29134151
0.12888078 -0.10567418 0.29638967
0.13356113 -0.10461661 0.29536065
0.14153445 -0.10364711 0.29314294
0.1299051 -0.099661864 0.29900002
0.1354077 -0.097569801 0.29840654
-0.16103928 -0.13182947 0.30900002
-0.15808462 -0.13199566 0.30806065
-0.16114447 -0.12390101 0.30876923
-0.15493111 -0.12458473 0.30637813
-0.14711957 -0.12226395 0.30420014
-0.16119207 -0.11635399 0.3089667
-0.15496783 -0.11491399 0.30724359
-0.14488173 -0.11475001 0.30492395
-0.13615419 -0.11244049 0.30487743
-0.1289835 -0.11039234 0.30600002
-0.15328799 -0.10664701 0.30860907
-0.14484362 -0.10514186 0.30777052
-0.13485543 -0.10483065 0.30704102
-0.12607591 -0.10356494 0.30765408
-0.1194855 -0.1000598 0.30900002
0.097107075 -0.10142228 0.3057059
0.12966892 -0.10130502 0.30250001
0.13045257 -0.1009889 0.30257145
-0.14151792 -0.099117622 0.30900002
-0.13444015 -0.098727018 0.30895653
-0.12653714 -0.098762147 0.30886
-0.1169851 -0.099190094 0.30900002
0.079073854 -0.09103854 0.30500004
0.086057149 -0.093125053 0.30321544
0.094789065 -0.094445415 0.30255052
0.10493269 -0.09250018 0.30310652
0.11474436 -0.092026703 0.30324128
0.1263212 -0.092963159 0.30279845
0.13375333 -0.093339764 0.30105412
0.1405585 -0.091134749 0.30200002
0.068234973 -0.082059838 0.30891177
0.075590789 -0.084283546 0.30685556
0.085043892 -0.084842533 0.30613339
0.094958507 -0.085221425 0.30553105
0.10511596 -0.084961489 0.30537838
0.11513507 -0.084996976 0.30501992
0.12503327 -0.085110404 0.3046003
0.13504177 -0.085073486 0.30424666
0.14236796 -0.083396234 0.30465972
0.067950599 -0.079373337 0.30900002
0.075401448 -0.079030417 0.30900002
0.085239753 -0.078233965 0.30868492
0.095205106 -0.076949053 0.30836305
0.104833 -0.076653875 0.30847478
0.11509648 -0.076771758 0.30808571
0.125147 -0.07552807 0.30810001
0.13494669 -0.075288676 0.30795607
0.14405495 -0.074294306 0.30788192
0.15006942 -0.078930706 0.30800003
0.14565092 -0.069085747 0.30890912
-0.16582096 -0.12518872 0.31108674
-0.18039444 -0.11435137 0.31823528
-0.17494197 -0.11495627 0.31544876
-0.1656595 -0.11460265 0.31099433
-0.18128297 -0.10458505 0.31881827
-0.17463776 -0.10479386 0.31565857
-0.16490597 -0.10493457 0.312139
-0.15649052 -0.10341122 0.31038266
-0.14745709 -0.10058498 0.30999997
-0.18137954 -0.097423255 0.31900015
-0.17462209 -0.095088236 0.3169513
-0.16486844 -0.095037855 0.31420824
-0.15480313 -0.094820581 0.31210509
-0.14512652 -0.094731644 0.31113994
-0.13532521 -0.09402395 0.31123233
-0.12476978 -0.094192199 0.31086126
-0.11594193 -0.09394002 0.31136554
-0.10833112 -0.090793572 0.31271428
0.10481343 -0.097968437 0.31133333
-0.17349839 -0.0859593 0.31839579
-0.16513802 -0.085232079 0.31698608
-0.15469877 -0.085392259 0.31552112
-0.14508453 -0.085085161 0.31504771
-0.13492654 -0.085053481 0.31447762
-0.1252663 -0.085252479 0.31473723
-0.11481401 -0.085238263 0.31431442
-0.10547328 -0.084622666 0.31501865
-0.097175658 -0.081458241 0.31697378
0.06539195 -0.080752015 0.30999997
-0.16322492 -0.077913418 0.31900018
-0.15481213 -0.076570258 0.31821916
-0.14488649 -0.075969703 0.31819725
-0.13497451 -0.075866058 0.3176305
-0.12498847 -0.07540407 0.31781965
-0.11533704 -0.075506449 0.31765011
-0.10500102 -0.075853847 0.31784108
-0.096347749 -0.076061845 0.31824216
0.0495276 -0.070307173 0.31500003
0.05621903 -0.072567284 0.31357265
0.06501402 -0.074497521 0.31115037
0.074955761 -0.073989503 0.31095782
0.084946148 -0.073229171 0.31088987
0.094178014 -0.071996927 0.31067333
0.1049903 -0.071576901 0.31005198
0.1147649 -0.071793489 0.31008536
0.12360999 -0.070684545 0.30999997
0.13697459 -0.070281841 0.30999997
0.14122809 -0.070281833 0.31
-0.11931203 -0.069628738 0.31900001
0.038251229 -0.061098319 0.31866664
0.045681063 -0.063798435 0.31707788
0.055067889 -0.0647972 0.31649658
0.064964116 -0.065011717 0.31537601
0.075070538 -0.06498988 0.31463116
0.084930517 -0.064874291 0.31386095
0.095098734 -0.064900056 0.31321567
0.10510334 -0.065018229 0.31283978
0.11496887 -0.065164149 0.31222352
0.12486154 -0.065146714 0.31175271
0.13486484 -0.064958952 0.3111667
0.14347057 -0.064602658 0.31100699
0.15210219 -0.061503131 0.31216666
0.037687674 -0.058888257 0.3190001
0.045330595 -0.058719885 0.31900018
0.055211265 -0.058196086 0.3189317
0.065755002 -0.057847381 0.31836101
0.075077213 -0.056925479 0.31800038
0.085219339 -0.056205206 0.31771764
0.095012739 -0.054845337 0.31683895
0.10511214 -0.055041701 0.31613535
0.11508947 -0.055272184 0.3157661
0.12503575 -0.055147778 0.31517106
0.13466853 -0.055080704 0.31452686
0.14377263 -0.057376783 0.31287909
0.15070115 -0.058760568 0.31200001
0.096946746 -0.048747361 0.31885377
0.10575207 -0.047719363 0.31847852
0.11510018 -0.046246845 0.31830952
0.12504712 -0.045713805 0.31815076
0.13489982 -0.045376457 0.31787375
0.14174341 -0.045104071 0.31805673
0.065286681 -0.031088052 0.3178125
0.19212851 -0.030572411 0.31900001
-0.18516998 -0.10379302 0.32111999
-0.18319325 -0.095173784 0.32073918
-0.17933047 -0.091227807 0.32060003
-0.18192086 -0.084695198 0.32176131
-0.1771757 -0.083128445 0.32035586
-0.16206646 -0.082613088 0.32155558
-0.12192603 -0.085352816 0.32016671
-0.18328014 -0.074418902 0.32444009
-0.17470087 -0.075042054 0.32174382
-0.16556133 -0.073687479 0.32056922
-0.15486579 -0.071632162 0.32035875
-0.14535438 -0.07100191 0.32007891
-0.13504925 -0.071094088 0.31999993
-0.12705511 -0.07058391 0.31999999
-0.11308698 -0.07104212 0.32000005
-0.10541876 -0.07097283 0.31999999
-0.093943529 -0.071738414 0.31999987
-0.087573536 -0.071615718 0.32048067
-0.18311158 -0.065681361 0.32692769
-0.1749472 -0.064948544 0.32506302
-0.16495952 -0.065105505 0.32329515
-0.15497401 -0.065061636 0.32264546
-0.1450583 -0.065206349 0.32211825
-0.1349728 -0.065049179 0.32174766
-0.12498616 -0.065169945 0.32184911
-0.11494471 -0.065133728 0.321917
-0.10496065 -0.065118261 0.32163703
-0.094911844 -0.06509617 0.32168713
-0.085075401 -0.064909764 0.32240424
-0.077575997 -0.062737204 0.32366663
0.035002511 -0.060390066 0.32000002
-0.17319475 -0.055980451 0.32755354
-0.16491586 -0.055071589 0.32685497
-0.1550231 -0.054991499 0.32608148
-0.14509915 -0.055017911 0.32553101
-0.13495918 -0.055272542 0.32537284
-0.12498325 -0.055179004 0.32523492
-0.11493935 -0.055025075 0.32517615
-0.10517395 -0.055066302 0.32554209
-0.095093772 -0.054911718 0.32556447
-0.085141078 -0.055260923 0.32541353
-0.075151622 -0.05513734 0.32555756
-0.066635981 -0.052169688 0.32718036
0.027249414 -0.051905535 0.32257825
0.035103988 -0.0542503 0.32100996
0.044961691 -0.05404526 0.32068005
0.05494329 -0.053451538 0.32061407
0.064702302 -0.053126801 0.32056677
0.074713729 -0.051952384 0.32035601
0.084396683 -0.051264953 0.31999987
0.090618342 -0.050482791 0.32000002
-0.17027782 -0.049587641 0.32900003
-0.16419983 -0.048163939 0.32869366
-0.15471913 -0.04765217 0.32871449
-0.14470382 -0.047067463 0.32847506
-0.13501924 -0.046673175 0.32813427
-0.12518272 -0.046857603 0.32798013
-0.11521909 -0.046978079 0.32845277
-0.10482758 -0.0452222 0.32867876
-0.094935536 -0.04509598 0.32876343
-0.085032538 -0.04531258 0.32842553
-0.075037077 -0.045261163 0.3282972
-0.065135159 -0.045152526 0.32852933
-0.058280446 -0.04314027 0.32898021
0.0089649688 -0.040237609 0.32500002
0.016179159 -0.042726833 0.3248499
0.02511904 -0.044777133 0.3240549
0.035096999 -0.044948377 0.32375461
0.045047775 -0.044977594 0.32380164
0.055017386 -0.04508191 0.32346538
0.064978458 -0.044940334 0.32316774
0.074976653 -0.044934291 0.32274002
0.085060917 -0.045117121 0.32181162
0.094734639 -0.044234272 0.320963
0.10455105 -0.042880602 0.32053402
0.11473736 -0.041167002 0.32027102
0.12433684 -0.040631812 0.31999996
0.13555489 -0.040318191 0.32000005
0.14124836 -0.040414691 0.32000002
-0.12075917 -0.035713375 0.32750002
-0.11549485 -0.03728383 0.32415387
-0.10495015 -0.039270245 0.32620835
-0.094974026 -0.039255057 0.32680002
-0.08504729 -0.039353605 0.32772422
-0.075085551 -0.038951397 0.32726097
-0.064650878 -0.038674623 0.32709447
-0.055246916 -0.038274508 0.3259075
-0.049588956 -0.036524802 0.32100004
0.0065460876 -0.03701169 0.32474589
0.015095053 -0.037086576 0.32538477
0.025160521 -0.036873095 0.32585847
0.035004389 -0.03669925 0.32560024
0.044967107 -0.036366429 0.3256287
0.055039819 -0.036238898 0.32562602
0.064951658 -0.036094893 0.32590288
0.075300016 -0.035544254 0.32617617
0.084945373 -0.035315961 0.32508188
0.094951354 -0.035210837 0.32442498
0.10498306 -0.035074621 0.32326087
0.11517745 -0.035016917 0.32289711
0.12503646 -0.034974933 0.32192925
0.135048 -0.034804933 0.32143784
0.14334594 -0.033671495 0.32164821
0.15839621 -0.032859091 0.32422581
0.16025269 -0.034477632 0.324
0.19336723 -0.031010833 0.32357147
0.078902699 -0.029427314 0.32366666
0.08592876 -0.028508931 0.32608348
0.095746696 -0.02629368 0.32705426
0.10512434 -0.025097439 0.32666925
0.11510029 -0.025033161 0.32589188
0.1250363 -0.025036171 0.32529408
0.13492723 -0.024924649 0.32530332
0.14423114 -0.028088074 0.32413638
0.15807062 -0.029531026 0.32233334
0.099880427 -0.019724391 0.32900003
0.10525632 -0.018708371 0.32900026
0.11531965 -0.017762687 0.32850525
0.12490343 -0.017211117 0.32839644
0.13338117 -0.017292975 0.32813945
-0.19030035 -0.065063678 0.33000001
-0.18840954 -0.065611005 0.32999998
-0.190052 -0.05844973 0.33200002
-0.18310015 -0.052324053 0.33241177
-0.1761739 -0.051820479 0.33042103
-0.18212135 -0.049205415 0.33287498
-0.17337237 -0.045154188 0.33144632
-0.16513391 -0.043370124 0.33079207
-0.15519558 -0.04272433 0.33046237
-0.14527653 -0.042033687 0.33024985
-0.13515441 -0.04138919 0.33032385
-0.12504868 -0.041707769 0.33028933
-0.11520054 -0.042047113 0.32999995
-0.18214041 -0.033757515 0.33647922
-0.17460528 -0.034562666 0.33476362
-0.16510178 -0.035096921 0.33374056
-0.15500891 -0.035075933 0.33302027
-0.14490582 -0.035054725 0.33270225
-0.13505699 -0.035150182 0.33271822
-0.12618928 -0.036602013 0.33227447
-0.11695777 -0.039621007 0.32999998
0.0033558987 -0.037896078 0.33000001
-0.18267651 -0.026606442 0.33699992
-0.17411995 -0.028429631 0.33607715
-0.16482882 -0.025346961 0.33723995
-0.1550495 -0.02520635 0.33694744
-0.14503294 -0.025166571 0.33648294
-0.13793233 -0.02739522 0.33527458
0.14634494 -0.020867886 0.33200002
-0.16330805 -0.018594541 0.33899999
-0.1552539 -0.018827654 0.33899996
-0.14545089 -0.018677337 0.33893177
-0.13997474 -0.019550472 0.33800003
0.099788889 -0.019844297 0.33100003
0.10604316 -0.014021933 0.3313514
0.11473527 -0.012711802 0.33090183
0.1249265 -0.012094785 0.33044544
0.13352309 -0.011887158 0.33048439
0.14408474 -0.015743447 0.33210197
0.10781468 -0.0054463609 0.33554339
0.11504117 -0.0048468304 0.33516619
0.12462229 -0.0050976509 0.33366489
0.13351955 -0.0044382522 0.33400792
0.1424145 -0.0081379637 0.33450004
0.15839112 -0.0075002778 0.33330444
0.16052565 -0.0073160194 0.33324999
0.10924351 0.0010531514 0.33837503
0.1153255 0.0040212329 0.33787537
0.12420627 0.0041732341 0.33710709
0.13305859 0.0015594729 0.33592516
-0.18222041 -0.021495687 0.34635001
-0.17037284 -0.021532213 0.34
-0.16951157 -0.02038387 0.34
-0.18053715 -0.011611727 0.34600002
-0.17431633 -0.011914313 0.34490624
-0.16428916 -0.013932382 0.34113961
-0.1550373 -0.013965302 0.3408739
-0.14648956 -0.013807187 0.34078825
-0.18095356 -0.0098303212 0.34750003
-0.1712835 -0.0084630121 0.3458572
-0.16401304 -0.0058587533 0.34555888
-0.15485527 -0.0050396519 0.3445642
-0.1471725 -0.0053365426 0.34474775
0.10752618 -0.00028786986 0.34
-0.16112745 0.00080416648 0.34666666
-0.153882 0.0025503447 0.34740517
-0.14803074 0.0030163757 0.34826002
0.10874093 0.0062138764 0.34200007
0.11307317 0.0083274413 0.34012252
0.12423637 0.0094927792 0.34006253
0.10891556 0.014450845 0.34372553
0.11484563 0.014621461 0.34175971
0.12432791 0.013498687 0.34097934
0.13106628 0.014713959 0.34100005
0.16223408 0.017446214 0.34837499
0.19750753 0.017966546 0.34600005
0.10925309 0.020390734 0.34500003
0.11739873 0.022243774 0.34572914
0.1210489 0.021192389 0.34599999
0.16184564 0.020274205 0.34800002
-0.16078202 0.0050518969 0.35200003
-0.15519774 0.0073237927 0.35068864
-0.14775555 0.0080396375 0.35007998
-0.15384015 0.011686204 0.35096166
-0.14801668 0.014058011 0.35186198
0.16098841 0.017342018 0.35093752
-0.16913259 0.020157235 0.35900003
-0.1481207 0.023799928 0.35586205
0.10927785 0.029238027 0.35200003
0.11123086 0.028553726 0.35171431
-0.15169454 0.033097319 0.35826665
-0.14827599 0.03248363 0.35816661
0.10859673 0.031108022 0.35200009
0.11267152 0.030428926 0.35160002
0.11796471 0.045075607 0.35649994
0.12079827 0.045803025 0.35669234
0.15976213 0.044407535 0.35900003
0.16180804 0.04444886 0.35818753
-0.21454415 0.019038307 0.36800003
-0.17232193 0.018167408 0.36000001
-0.16914774 0.018161561 0.36000004
-0.21532097 0.02066257 0.36800003
-0.17199208 0.020430505 0.35999998
-0.14889553 0.027052777 0.36000001
-0.17136098 0.045352411 0.36899999
-0.16907857 0.045369599 0.36899999
0.11903432 0.072387822 0.36899999
0.12059219 0.072517633 0.36900002
-0.1734471 0.046549253 0.37
0.11771259 0.073803522 0.36999995
-0.071729816 0.083852589 0.37233338
-0.068049885 0.084823132 0.37342864
-0.055836126 0.084308401 0.37687501
-0.044949193 0.087398984 0.37557444
-0.033122078 0.086687177 0.37302861
-0.025280224 0.087867551 0.37334028
-0.014757743 0.087720245 0.37290895
-0.0051641893 0.088046342 0.37217641
0.0059306333 0.088462472 0.37302864
0.014594522 0.087965287 0.37190002
0.023004875 0.088127352 0.3721787
0.034778293 0.089039899 0.37599996
0.045215461 0.087850265 0.37446159
-0.07078483 0.091751732 0.37600002
-0.069650955 0.091978498 0.37599999
-0.042721529 0.090669394 0.377
-0.031893156 0.090164311 0.37600002
-0.025036339 0.093789577 0.3768
-0.016135799 0.092094317 0.37439626
-0.0032516888 0.091346748 0.37336373
0.0045689302 0.09251941 0.37451163
0.011666931 0.09023229 0.37300003
0.02264248 0.090773635 0.37314293
0.034833033 0.091122247 0.37600008
0.073500589 0.099206753 0.3784
-0.021747097 0.10048419 0.37900001
0.073602632 0.10105602 0.37857145
-0.17433231 0.074190356 0.38700005
-0.12233763 0.099510908 0.38277775
-0.062318146 0.092723042 0.38666669
-0.025579084 0.098474994 0.38070959
0.0075542652 0.099626318 0.38000003
0.069512486 0.099134251 0.38150001
0.071800314 0.099008739 0.38040003
0.11871616 0.099208832 0.38157144
-0.1224125 0.10207979 0.38447058
-0.074145786 0.1036818 0.38629034
-0.026117617 0.10366808 0.38143045
0.0070729735 0.10074933 0.38000003
0.019457182 0.10383063 0.38700002
0.023991138 0.10453557 0.38587883
0.06887839 0.10111831 0.38200003
0.071702898 0.10212534 0.38142857
0.11828902 0.10122859 0.38090003
0.022944979 0.12821476 0.38899997
0.023551511 0.13109192 0.38899997
-0.077683873 0.10492573 0.39108333
-0.072406054 0.1307261 0.39800003
-0.2004438 0.14213017 0.39700001
-0.19960578 0.14296819 0.39700001
-0.025619395 0.15465222 0.39851514
-0.15240566 0.18746831 0.41899994
-0.14541616 0.18775333 0.41824993
-0.13467863 0.1880554 0.41749999
-0.12592548 0.18838811 0.41697606
-0.11482193 0.18870269 0.41583326
-0.10535682 0.18850054 0.41600013
-0.096229278 0.18923919 0.41599995
-0.15111224 0.19128202 0.41900006
-0.14517644 0.19291131 0.41869572
-0.13498315 0.19315563 0.41790766
-0.12540005 0.19328605 0.41755697
-0.1148769 0.19340201 0.41663858
-0.10515949 0.19303326 0.41625899
-0.09476538 0.19333324 0.41612664
-0.086883411 0.19379134 0.41604501
-0.070698485 0.19754705 0.41900003
-0.064256132 0.19733143 0.41800013
-0.054639302 0.19723333 0.41677791
-0.045606595 0.19679467 0.41609687
-0.035007644 0.19660029 0.41632435
-0.028163314 0.19654733 0.41599995
-0.15615341 0.18863982 0.42066669
-0.15416569 0.19382244 0.42085013
-0.14999524 0.1960237 0.42000002
