# .PCD v0.7 - Point Cloud Data file format
VERSION 0.7
FIELDS x y z
SIZE 4 4 4
TYPE F F F
COUNT 1 1 1
WIDTH 112
HEIGHT 1
VIEWPOINT 0 0 0 1 0 0 0
POINTS 112
DATA ascii
-0.021964995 -0.021035228 0.046054985
-0.017907908 -0.020909632 0.045378137
-0.02284159 -0.021928184 0.05413688
-0.01768931 -0.021815853 0.054351896
-0.023841269 -0.022628028 0.063312575
-0.017827673 -0.022063695 0.060564622
-0.023374343 -0.022812711 0.075487927
-0.018058473 -0.022729501 0.07600645
-0.032724068 -0.028256197 0.089000002
-0.023652012 -0.023379397 0.085885242
-0.033827122 -0.029402856 0.092000008
-0.028579757 -0.025485035 0.096299991
-0.029329458 -0.025721943 0.10177777
-0.035528712 -0.030841697 0.15275002
-0.02378148 -0.031101922 0.18500003
-0.016682243 -0.03102606 0.18506008
-0.03075977 -0.027170561 0.18600002
-0.024682529 -0.026141014 0.18500794
-0.015779212 -0.026005797 0.18504736
-0.011704389 -0.029840467 0.19000001
-0.0089436853 -0.024756096 0.19100001
-0.021649443 -0.025127495 0.22825003
-0.018940886 -0.026297582 0.22900002
-0.021839827 -0.025190054 0.23066668
-0.017081548 -0.02689793 0.23
-0.029599346 -0.027166886 0.24100001
-0.075109884 -0.025734534 0.28482813
-0.064911127 -0.025207227 0.28491178
-0.05502522 -0.025221579 0.28569677
-0.044867191 -0.024568221 0.28419989
-0.03548288 -0.024813309 0.28483674
-0.024869224 -0.025113532 0.28456327
-0.015258456 -0.024657488 0.28399992
-0.0049178381 -0.024615368 0.28502941
0.0051227063 -0.024035016 0.28437492
0.015379294 -0.022768376 0.28429097
0.025128337 -0.022152245 0.28465167
0.034737457 -0.021608295 0.28433824
0.044812236 -0.02162715 0.28554684
0.054514341 -0.02120043 0.28519052
0.065120772 -0.021081235 0.28612494
0.072714068 -0.021151936 0.28616673
-0.10238387 -0.03057719 0.29722226
-0.095455445 -0.030570569 0.29748002
-0.084685907 -0.030434204 0.29787499
-0.078379832 -0.030549144 0.29900002
-0.10324833 -0.028810574 0.29305556
-0.094534338 -0.028742164 0.29262504
-0.084791638 -0.028689722 0.29349023
-0.074571386 -0.028677655 0.29381114
-0.065099619 -0.028542172 0.29460612
-0.054861445 -0.028204232 0.29486534
-0.044974755 -0.027919825 0.29464617
-0.035605088 -0.027582087 0.29396075
-0.02499499 -0.0285208 0.29459679
-0.014581638 -0.028241824 0.29450729
-0.0048621111 -0.027959075 0.29506159
0.0048921327 -0.027562099 0.29453534
0.015477635 -0.025681028 0.2940363
0.024708187 -0.025389468 0.29471669
0.035170548 -0.02477314 0.29368344
0.044744086 -0.024704671 0.29475868
0.055266481 -0.023994127 0.29394287
0.064708911 -0.023714334 0.29420015
0.072590142 -0.023605822 0.29433334
-0.11083569 -0.031402681 0.30733335
-0.10423402 -0.03272137 0.30428576
-0.094772436 -0.032837104 0.30445004
-0.085116565 -0.032641422 0.30499998
-0.074667946 -0.032147024 0.30446428
-0.065072291 -0.032063 0.3049843
-0.054900698 -0.031398054 0.30404624
-0.044889688 -0.031513888 0.30512896
-0.035858739 -0.031226221 0.30391836
-0.023216801 -0.031917516 0.30395555
-0.015344019 -0.032111768 0.30422372
-0.0053090765 -0.031738445 0.30478674
0.0038110723 -0.031060517 0.30515626
0.015641471 -0.030627823 0.30834788
0.023331402 -0.030221783 0.30854547
-0.034629188 -0.029384762 0.29999998
0.0090336511 -0.029641667 0.30425
0.014917125 -0.028688513 0.30306247
0.025343692 -0.028378714 0.30396003
0.034628425 -0.027989201 0.30371705
0.045318358 -0.027919132 0.3047896
0.055003889 -0.027586354 0.30453333
0.065296866 -0.027125733 0.30482355
0.07197874 -0.026735233 0.30449998
-0.11325093 -0.033810653 0.31345239
-0.10489781 -0.036134537 0.31296155
-0.09507224 -0.036087241 0.31420839
-0.084608585 -0.035998899 0.31503701
-0.075043701 -0.035440296 0.31423414
-0.065422162 -0.035279512 0.31469998
-0.055257738 -0.034702141 0.31422728
-0.046206456 -0.034211509 0.31266668
-0.020924265 -0.035538439 0.31357145
-0.01925117 -0.035393007 0.31250003
-0.0029858269 -0.034268778 0.31054166
0.0054617072 -0.03328827 0.31405562
0.014656047 -0.03237943 0.31312904
0.024853872 -0.031776074 0.31380492
0.034872591 -0.031492367 0.31469771
0.044873908 -0.031132558 0.31455171
0.053990949 -0.031222284 0.31627271
0.071255662 -0.030284896 0.31600001
0.03750781 -0.029709864 0.30999997
0.045407832 -0.029738616 0.31030002
0.054966159 -0.02994946 0.3125
0.06470006 -0.029549791 0.31174999
0.073532633 -0.028906686 0.3135455
