# .PCD v0.7 - Point Cloud Data file format
VERSION 0.7
FIELDS x y z rgb
SIZE 4 4 4 4
TYPE F F F U
COUNT 1 1 1 1
WIDTH 1036
HEIGHT 1
VIEWPOINT 0 0 0 1 0 0 0
POINTS 1036
DATA ascii
-0.024731277 0.044084158 0.51600003 4278252682
-0.023060493 0.044084158 0.51600003 4278249381
-0.022225102 0.044084158 0.51600003 4278247068
-0.021389712 0.044084158 0.51600003 4278838464
-0.020554321 0.044084158 0.51600003 4282646522
-0.018883539 0.044084158 0.51600003 4278246338
-0.018048149 0.044084158 0.51600003 4282056687
-0.017212756 0.044084158 0.51600003 4279496392
-0.015541974 0.044084158 0.51600003 4280877023
-0.014706584 0.044084158 0.51600003 4279106749
-0.013871193 0.044084158 0.51600003 4278251440
-0.013035802 0.044084158 0.51600003 4278253725
-0.01136502 0.044084158 0.51600003 4278255503
-0.010529629 0.044084158 0.51600003 4278255502
-0.0097130239 0.04416959 0.51700002 4278255500
-0.0080390042 0.04416959 0.51700002 4278779792
-0.0072019943 0.04416959 0.51700002 4278517644
-0.0063649849 0.04416959 0.51700002 4278711434
-0.005527975 0.04416959 0.51700002 4278579848
-0.0038539548 0.04416959 0.51700002 4278239844
-0.0030227804 0.044255026 0.51800001 4280590405
-0.0021841514 0.044255026 0.51800001 4280524612
-0.0013455225 0.044255026 0.51800001 4283077447
0.0003317355 0.044255026 0.51800001 4283993934
0.0011726238 0.044340461 0.51900005 4283928141
0.0020128719 0.044340461 0.51900005 4284124241
0.0028641142 0.044511329 0.52100003 4283992655
0.0045510861 0.044511329 0.52100003 4283464773
0.0054049259 0.044596765 0.52200001 4283593531
0.0062739775 0.044767633 0.52400005 4283461945
0.0071359128 0.044853069 0.52500004 4284246837
0.0088526662 0.044938501 0.52600002 4284441386
0.0097226966 0.045023937 0.52700001 4284375593
0.010616032 0.045194805 0.52900004 4284702243
0.011494157 0.04528024 0.53000003 4284702243
0.012422132 0.04553654 0.53300005 4285291300
0.013384746 0.04587828 0.537 4285093921
0.014333768 0.046134584 0.54000002 4285485599
0.016201388 0.046476319 0.54400003 4285811230
0.017176313 0.046732623 0.54700005 4285942816
0.01816095 0.046988927 0.55000001 4286467366
0.019086026 0.047074363 0.551 4286533159
0.019978082 0.047074363 0.551 4286729514
0.021801688 0.047159798 0.55200005 4287189303
0.022695361 0.047159798 0.55200005 4287452475
0.023589035 0.047159798 0.55200005 4287190589
0.02448271 0.047159798 0.55200005 4287519554
0.02631765 0.047245231 0.55300003 4287717446
0.027212942 0.047245231 0.55300003 4288047440
0.028108235 0.047245231 0.55300003 4288244819
0.029898822 0.047245231 0.55300003 4288443743
0.0308498 0.047330666 0.55400002 4288773482
0.031746712 0.047330666 0.55400002 4288905068
0.032643624 0.047330666 0.55400002 4288905068
0.034437448 0.047330666 0.55400002 4289036402
0.03533436 0.047330666 0.55400002 4288904816
0.036231272 0.047330666 0.55400002 4289036402
0.037128184 0.047330666 0.55400002 4289036402
0.038922008 0.047330666 0.55400002 4289102195
0.03981892 0.047330666 0.55400002 4289037175
0.040715832 0.047330666 0.55400002 4288839796
0.042509656 0.047330666 0.55400002 4289037177
0.043406568 0.047330666 0.55400002 4289168763
0.044303481 0.047330666 0.55400002 4289168763
0.046014097 0.047245231 0.55300003 4289234558
0.046909392 0.047245231 0.55300003 4289168513
0.047804683 0.047245231 0.55300003 4289300099
0.048699975 0.047245231 0.55300003 4289300099
0.050490562 0.047245231 0.55300003 4289431685
0.051385857 0.047245231 0.55300003 4289629064
0.052281149 0.047245231 0.55300003 4289564041
0.054071736 0.047245231 0.55300003 4289564041
0.054967027 0.047245231 0.55300003 4289564041
0.055862322 0.047245231 0.55300003 4289564041
0.056757614 0.047245231 0.55300003 4289695627
0.058548201 0.047245231 0.55300003 4289827213
0.059443492 0.047245231 0.55300003 4289827213
0.060338788 0.047245231 0.55300003 4290024592
0.061234079 0.047245231 0.55300003 4290024592
0.063024662 0.047245231 0.55300003 4290156176
0.063919961 0.047245231 0.55300003 4290090383
0.064815253 0.047245231 0.55300003 4290156176
0.066605836 0.047245231 0.55300003 4290221969
0.067501128 0.047245231 0.55300003 4290221969
0.068396427 0.047245231 0.55300003 4290287764
0.069291718 0.047245231 0.55300003 4290353557
0.071082301 0.047245231 0.55300003 4290485143
0.071977593 0.047245231 0.55300003 4290353557
0.072872892 0.047245231 0.55300003 4290485143
0.074663475 0.047245231 0.55300003 4290484889
0.075558767 0.047245231 0.55300003 4290419609
0.076454058 0.047245231 0.55300003 4290485402
0.077489227 0.047330666 0.55400002 4290485402
0.079283051 0.047330666 0.55400002 4290420381
0.08017996 0.047330666 0.55400002 4290420381
0.08122322 0.047416102 0.55500001 4290355101
0.083020285 0.047416102 0.55500001 4290552480
0.08391881 0.047416102 0.55500001 4290355101
0.084817342 0.047416102 0.55500001 4290289308
0.085715875 0.047416102 0.55500001 4290420894
0.08751294 0.047416102 0.55500001 4290421664
0.088411465 0.047416102 0.55500001 4290290078
0.089309998 0.047416102 0.55500001 4290290078
0.091107063 0.047416102 0.55500001 4290355871
0.09183982 0.047330666 0.55400002 4290290078
0.092736728 0.047330666 0.55400002 4290421664
0.093464628 0.047245231 0.55300003 4290421662
0.095255218 0.047245231 0.55300003 4290159517
-0.071011543 0.048858471 0.551 4284954917
-0.070119485 0.048858471 0.551 4284889124
-0.069227435 0.048858471 0.551 4284758052
-0.068335377 0.048858471 0.551 4284823845
-0.066551268 0.048858471 0.551 4284495650
-0.06565921 0.048858471 0.551 4284364581
-0.06476716 0.048858471 0.551 4284364581
-0.062983043 0.048858471 0.551 4284496167
-0.062090993 0.048858471 0.551 4284496937
-0.061198935 0.048858471 0.551 4284431144
-0.060306881 0.048858471 0.551 4284431403
-0.058522772 0.048858471 0.551 4284168745
-0.057630714 0.048858471 0.551 4284168745
-0.05673866 0.048858471 0.551 4284103724
-0.054954551 0.048858471 0.551 4284169778
-0.04710355 0.045577593 0.514 4284564284
-0.045439243 0.045577593 0.514 4284173126
-0.044607092 0.045577593 0.514 4280115811
-0.043774936 0.045577593 0.514 4281036913
-0.042110633 0.045577593 0.514 4280341409
-0.041358788 0.045666266 0.51500005 4278576277
-0.040525015 0.045666266 0.51500005 4278576277
-0.039691243 0.045666266 0.51500005 4278249617
-0.038023699 0.045666266 0.51500005 4278249610
-0.037189927 0.045666266 0.51500005 4278250381
-0.036356155 0.045666266 0.51500005 4278579857
-0.034688611 0.045666266 0.51500005 4278250635
-0.033854838 0.045666266 0.51500005 4278250635
-0.033021066 0.045666266 0.51500005 4278250635
-0.032187294 0.045666266 0.51500005 4278382478
-0.03051975 0.045666266 0.51500005 4278383248
-0.029743621 0.045754939 0.51600003 4278516371
-0.02890823 0.045754939 0.51600003 4278384785
-0.02807284 0.045754939 0.51600003 4278253969
-0.026402058 0.045754939 0.51600003 4278253708
-0.025566667 0.045754939 0.51600003 4278253965
-0.024731277 0.045754939 0.51600003 4278253703
-0.023060493 0.045754939 0.51600003 4278252442
-0.022225102 0.045754939 0.51600003 4278976424
-0.021389712 0.045754939 0.51600003 4279303367
-0.020554321 0.045754939 0.51600003 4278249651
-0.018883539 0.045754939 0.51600003 4282515445
-0.018048149 0.045754939 0.51600003 4278773954
-0.017212756 0.045754939 0.51600003 4278576575
-0.015541974 0.045754939 0.51600003 4280090585
-0.014706584 0.045754939 0.51600003 4283170810
-0.013871193 0.045754939 0.51600003 4278904505
-0.013035802 0.045754939 0.51600003 4278252957
-0.011387045 0.045843612 0.51700002 4278255509
-0.010550034 0.045843612 0.51700002 4278255509
-0.0097130239 0.045843612 0.51700002 4278255249
-0.0080390042 0.045843612 0.51700002 4278255506
-0.0072019943 0.045843612 0.51700002 4278255505
-0.0063649849 0.045843612 0.51700002 4278255503
-0.005527975 0.045843612 0.51700002 4278255503
-0.0038539548 0.045843612 0.51700002 4278321039
-0.0030227804 0.045932285 0.51800001 4278908038
-0.0021841514 0.045932285 0.51800001 4279171210
-0.0013455225 0.045932285 0.51800001 4280079218
0.0003317355 0.045932285 0.51800001 4280851787
0.0011726238 0.046020955 0.51900005 4280983373
0.0020128719 0.046020955 0.51900005 4282946127
0.0028586171 0.046109628 0.52000004 4282946127
0.0045423508 0.046109628 0.52000004 4282943560
0.0053945719 0.046198301 0.52100003 4283074115
0.0062500308 0.046286974 0.52200001 4283074115
0.0070951357 0.046286974 0.52200001 4283727153
0.0088021755 0.046375647 0.523 4284578350
0.009667349 0.046464317 0.52400005 4284052006
0.01053576 0.04655299 0.52500004 4284180002
0.011429096 0.046730336 0.52700001 4284180002
0.013185345 0.046907678 0.52900004 4284440866
0.014094871 0.047085024 0.53100002 4284767521
0.015010872 0.047262367 0.53300005 4284701728
0.015963133 0.047528386 0.53600001 4284831519
0.016925106 0.047794402 0.53900003 4284831519
0.017962832 0.048237763 0.54400003 4285682211
0.018947471 0.048503783 0.54700005 4285550625
0.019941824 0.048769802 0.55000001 4285942818
0.021762192 0.048858471 0.551 4286401321
0.022695361 0.048947144 0.55200005 4286467114
0.023589035 0.048947144 0.55200005 4286467114
0.02448271 0.048947144 0.55200005 4286598700
0.026270058 0.048947144 0.55200005 4287388216
0.027212942 0.049035814 0.55300003 4287520317
0.028108235 0.049035814 0.55300003 4287454524
0.029898822 0.049035814 0.55300003 4288243538
0.030794116 0.049035814 0.55300003 4288179038
0.031746712 0.04912449 0.55400002 4288508003
0.032643624 0.04912449 0.55400002 4288444263
0.034437448 0.04912449 0.55400002 4289036148
0.03533436 0.04912449 0.55400002 4288772976
0.036231272 0.04912449 0.55400002 4289036148
0.037128184 0.04912449 0.55400002 4289036148
0.038922008 0.04912449 0.55400002 4289102454
0.03981892 0.04912449 0.55400002 4288971382
0.040715832 0.04912449 0.55400002 4288905589
0.042509656 0.04912449 0.55400002 4288906361
0.043406568 0.04912449 0.55400002 4289103742
0.044303481 0.04912449 0.55400002 4289103742
0.045200393 0.04912449 0.55400002 4288840829
0.046909392 0.049035814 0.55300003 4289037443
0.047804683 0.049035814 0.55300003 4289169029
0.048699975 0.049035814 0.55300003 4289169029
0.050490562 0.049035814 0.55300003 4289169283
0.051385857 0.049035814 0.55300003 4289235076
0.052281149 0.049035814 0.55300003 4289366662
0.054071736 0.049035814 0.55300003 4289563787
0.054967027 0.049035814 0.55300003 4289563787
0.055862322 0.049035814 0.55300003 4289564041
0.056757614 0.049035814 0.55300003 4289629834
0.058548201 0.049035814 0.55300003 4289366662
0.059443492 0.049035814 0.55300003 4289498248
0.060338788 0.049035814 0.55300003 4289695627
0.061234079 0.049035814 0.55300003 4289827213
0.063024662 0.049035814 0.55300003 4290090383
0.063919961 0.049035814 0.55300003 4290090383
0.064815253 0.049035814 0.55300003 4290156176
0.066605836 0.049035814 0.55300003 4290221969
0.067501128 0.049035814 0.55300003 4290287762
0.068396427 0.049035814 0.55300003 4290353555
0.069291718 0.049035814 0.55300003 4290353555
0.071082301 0.049035814 0.55300003 4290222482
0.071977593 0.049035814 0.55300003 4290288277
0.072872892 0.049035814 0.55300003 4290222484
0.074663475 0.049035814 0.55300003 4290551449
0.075558767 0.049035814 0.55300003 4290551449
0.076454058 0.049035814 0.55300003 4290485656
0.077489227 0.04912449 0.55400002 4290289047
0.079283051 0.04912449 0.55400002 4290420379
0.08017996 0.04912449 0.55400002 4290486172
0.08122322 0.049213164 0.55500001 4290355101
0.083020285 0.049213164 0.55500001 4290552480
0.08391881 0.049213164 0.55500001 4290552480
0.084817342 0.049213164 0.55500001 4290486687
0.085715875 0.049213164 0.55500001 4290486687
0.08751294 0.049213164 0.55500001 4290421664
0.088411465 0.049213164 0.55500001 4290355871
0.089309998 0.049213164 0.55500001 4290421664
0.091107063 0.049213164 0.55500001 4290553250
0.092005596 0.049213164 0.55500001 4290421664
0.092736728 0.04912449 0.55400002 4290421664
0.093633644 0.04912449 0.55400002 4290421664
0.095255218 0.049035814 0.55300003 4290422691
-0.071011543 0.049750526 0.551 4285020197
-0.070119485 0.049750526 0.551 4284954404
-0.069227435 0.049750526 0.551 4284627236
-0.068335377 0.049750526 0.551 4284561443
-0.066551268 0.049750526 0.551 4284495650
-0.06565921 0.049750526 0.551 4284364579
-0.0648847 0.049840819 0.55200005 4284430372
-0.062983043 0.049750526 0.551 4284496165
-0.062090993 0.049750526 0.551 4284496937
-0.061198935 0.049750526 0.551 4284431144
-0.060306881 0.049750526 0.551 4284300585
-0.058522772 0.049750526 0.551 4284168999
-0.057630714 0.049750526 0.551 4284234792
-0.05673866 0.049750526 0.551 4284103724
-0.047935702 0.046409748 0.514 4284433470
-0.047195189 0.046500038 0.51500005 4284499263
-0.045439243 0.046409748 0.514 4283124300
-0.044693872 0.046500038 0.51500005 4278742115
-0.0438601 0.046500038 0.51500005 4282426523
-0.042192556 0.046500038 0.51500005 4279096215
-0.041358788 0.046500038 0.51500005 4278313622
-0.040525015 0.046500038 0.51500005 4278379415
-0.039691243 0.046500038 0.51500005 4278249363
-0.038023699 0.046500038 0.51500005 4278249358
-0.037189927 0.046500038 0.51500005 4278315922
-0.036356155 0.046500038 0.51500005 4278382226
-0.034688611 0.046500038 0.51500005 4278250383
-0.033854838 0.046500038 0.51500005 4278250383
-0.033085186 0.046590328 0.51600003 4278250637
-0.032249793 0.046590328 0.51600003 4278250894
-0.030579012 0.046590328 0.51600003 4278449043
-0.029743621 0.046590328 0.51600003 4278318225
-0.02890823 0.046590328 0.51600003 4278384018
-0.02807284 0.046590328 0.51600003 4278384785
-0.026402058 0.046590328 0.51600003 4278253451
-0.025616216 0.046680622 0.51700002 4278253708
-0.024779204 0.046680622 0.51700002 4278253960
-0.023105185 0.046680622 0.51700002 4278253458
-0.022268174 0.046680622 0.51700002 4278252944
-0.021431165 0.046680622 0.51700002 4278249892
-0.020594155 0.046680622 0.51700002 4278250663
-0.018920135 0.046680622 0.51700002 4278577591
-0.018083125 0.046680622 0.51700002 4278313651
-0.017246114 0.046680622 0.51700002 4278247858
-0.015572095 0.046680622 0.51700002 4282449898
-0.014735085 0.046680622 0.51700002 4279893703
-0.013898075 0.046680622 0.51700002 4278247850
-0.013061064 0.046680622 0.51700002 4278385828
-0.011387045 0.046680622 0.51700002 4278255259
-0.010550034 0.046680622 0.51700002 4278254745
-0.0097130239 0.046680622 0.51700002 4278976425
-0.0080390042 0.046680622 0.51700002 4278253970
-0.0072019943 0.046680622 0.51700002 4278255255
-0.0063649849 0.046680622 0.51700002 4278255503
-0.005527975 0.046680622 0.51700002 4278255503
-0.0038539548 0.046680622 0.51700002 4278255501
-0.0030227804 0.046770915 0.51800001 4278255502
-0.0021841514 0.046770915 0.51800001 4278255502
-0.0013455225 0.046770915 0.51800001 4279040912
0.0003317355 0.046770915 0.51800001 4281460358
0.0011703644 0.046770915 0.51800001 4279815533
0.0020128719 0.046861205 0.51900005 4281775204
0.0036933676 0.046861205 0.51900005 4282422609
0.0045423508 0.046951495 0.52000004 4282159437
0.0053842179 0.046951495 0.52000004 4282879298
0.0062380577 0.047041785 0.52100003 4282813505
0.0079250298 0.047041785 0.52100003 4283336240
0.0087685157 0.047041785 0.52100003 4283858219
0.00963045 0.047132079 0.52200001 4283726633
0.010495624 0.047222372 0.523 4284446762
0.012212378 0.047312662 0.52400005 4284246565
0.013085646 0.047402952 0.52500004 4284180772
0.013962151 0.047493242 0.52600002 4284506657
0.014841895 0.047583535 0.52700001 4284309278
0.015724877 0.047673829 0.528 4284505632
0.017467534 0.047764119 0.52900004 4285094691
0.021643704 0.049479652 0.54800004 4286008609
0.022613132 0.049660236 0.55000001 4286140195
0.023546301 0.049750526 0.551 4286205477
0.024438357 0.049750526 0.551 4286337063
0.026270058 0.049840819 0.55200005 4286533672
0.027163731 0.049840819 0.55200005 4286861872
0.028108235 0.049931109 0.55300003 4287059251
0.029898822 0.049931109 0.55300003 4287584843
0.030794116 0.049931109 0.55300003 4287454288
0.031746712 0.050021403 0.55400002 4287914839
0.032643624 0.050021403 0.55400002 4287981661
0.034437448 0.050021403 0.55400002 4288904046
0.03533436 0.050021403 0.55400002 4288772460
0.036231272 0.050021403 0.55400002 4288904564
0.037128184 0.050021403 0.55400002 4288904564
0.038922008 0.050021403 0.55400002 4289102456
0.03981892 0.050021403 0.55400002 4288971384
0.040715832 0.050021403 0.55400002 4288971384
0.042509656 0.050021403 0.55400002 4289037947
0.043406568 0.050021403 0.55400002 4289169535
0.044303481 0.050021403 0.55400002 4289169535
0.045200393 0.050021403 0.55400002 4288840831
0.046994217 0.050021403 0.55400002 4289103236
0.047804683 0.049931109 0.55300003 4289169029
0.048699975 0.049931109 0.55300003 4289103236
0.050490562 0.049931109 0.55300003 4289169283
0.051385857 0.049931109 0.55300003 4289235076
0.052281149 0.049931109 0.55300003 4289301382
0.054071736 0.049931109 0.55300003 4289432968
0.054967027 0.049931109 0.55300003 4289432968
0.055862322 0.049931109 0.55300003 4289432968
0.056757614 0.049931109 0.55300003 4289498761
0.058548201 0.049931109 0.55300003 4289301382
0.059443492 0.049931109 0.55300003 4289564041
0.060338788 0.049931109 0.55300003 4289695627
0.061234079 0.049931109 0.55300003 4289827213
0.063024662 0.049931109 0.55300003 4290024590
0.063919961 0.049931109 0.55300003 4290024590
0.064815253 0.049931109 0.55300003 4290090383
0.066605836 0.049931109 0.55300003 4290156176
0.067501128 0.049931109 0.55300003 4290221969
0.068396427 0.049931109 0.55300003 4290222484
0.069291718 0.049931109 0.55300003 4290288277
0.071082301 0.049931109 0.55300003 4290222484
0.071977593 0.049931109 0.55300003 4290288277
0.072872892 0.049931109 0.55300003 4290222484
0.074663475 0.049931109 0.55300003 4290485656
0.075558767 0.049931109 0.55300003 4290551195
0.076454058 0.049931109 0.55300003 4290485402
0.077489227 0.050021403 0.55400002 4290288793
0.079283051 0.050021403 0.55400002 4290486174
0.08017996 0.050021403 0.55400002 4290617760
0.08122322 0.050111692 0.55500001 4290420896
0.083020285 0.050111692 0.55500001 4290486689
0.08391881 0.050111692 0.55500001 4290552482
0.084970176 0.050201982 0.55600005 4290553250
0.085870326 0.050201982 0.55600005 4290421664
0.087670624 0.050201982 0.55600005 4290553250
0.088570774 0.050201982 0.55600005 4290421664
0.089470923 0.050201982 0.55600005 4290553250
0.091107063 0.050111692 0.55500001 4290553250
0.092005596 0.050111692 0.55500001 4290421664
0.092736728 0.050021403 0.55400002 4290553250
0.093633644 0.050021403 0.55400002 4290553252
0.095427468 0.050021403 0.55400002 4290553766
-0.071140416 0.050734494 0.55200005 4284954658
-0.070246741 0.050734494 0.55200005 4285020451
-0.069353066 0.050734494 0.55200005 4284627236
-0.068459392 0.050734494 0.55200005 4284495650
-0.066672042 0.050734494 0.55200005 4284495650
-0.065778367 0.050734494 0.55200005 4284430372
-0.0648847 0.050734494 0.55200005 4284561958
-0.06309735 0.050734494 0.55200005 4284561960
-0.062203676 0.050734494 0.55200005 4284431403
-0.061310001 0.050734494 0.55200005 4284365610
-0.060416326 0.050734494 0.55200005 4284169515
-0.058522772 0.05064258 0.551 4284037929
-0.057630714 0.05064258 0.551 4284103722
-0.047935702 0.0472419 0.514 4284302913
-0.04710355 0.0472419 0.514 4284566085
-0.045527644 0.04733381 0.51500005 4282273881
-0.044693872 0.04733381 0.51500005 4278684785
-0.0438601 0.04733381 0.51500005 4281842849
-0.042192556 0.04733381 0.51500005 4278704530
-0.041358788 0.04733381 0.51500005 4278248082
-0.040525015 0.04733381 0.51500005 4278379668
-0.039691243 0.04733381 0.51500005 4278249365
-0.038023699 0.04733381 0.51500005 4278249363
-0.037262142 0.047425721 0.51600003 4278249877
-0.036426749 0.047425721 0.51600003 4278315924
-0.03559136 0.047425721 0.51600003 4278250131
-0.033920575 0.047425721 0.51600003 4278250387
-0.033085186 0.047425721 0.51600003 4278250385
-0.032249793 0.047425721 0.51600003 4278250642
-0.030579012 0.047425721 0.51600003 4278382996
-0.029743621 0.047425721 0.51600003 4278318227
-0.02890823 0.047425721 0.51600003 4278252434
-0.028127244 0.047517631 0.51700002 4278384018
-0.026453225 0.047517631 0.51700002 4278253195
-0.025616216 0.047517631 0.51700002 4278318988
-0.024779204 0.047517631 0.51700002 4278253960
-0.023105185 0.047517631 0.51700002 4278386060
-0.022268174 0.047517631 0.51700002 4278254217
-0.021431165 0.047517631 0.51700002 4278253213
-0.020594155 0.047517631 0.51700002 4278252956
-0.018920135 0.047517631 0.51700002 4278250399
-0.018083125 0.047517631 0.51700002 4278842546
-0.017246114 0.047517631 0.51700002 4280745935
-0.015572095 0.047517631 0.51700002 4282253273
-0.014735085 0.047517631 0.51700002 4278248862
-0.013898075 0.047517631 0.51700002 4278250147
-0.013061064 0.047517631 0.51700002 4278648747
-0.011387045 0.047517631 0.51700002 4278252953
-0.010550034 0.047517631 0.51700002 4279566256
-0.0097130239 0.047517631 0.51700002 4279566258
-0.0080390042 0.047517631 0.51700002 4278255260
-0.0072019943 0.047517631 0.51700002 4278255260
-0.0063649849 0.047517631 0.51700002 4278255509
-0.005527975 0.047517631 0.51700002 4278255509
-0.0038539548 0.047517631 0.51700002 4278255505
-0.0030227804 0.047609542 0.51800001 4278255506
-0.0021841514 0.047609542 0.51800001 4278255507
-0.0013455225 0.047609542 0.51800001 4278321043
0.0003317355 0.047609542 0.51800001 4278971785
0.0011703644 0.047609542 0.51800001 4279169164
0.0020128719 0.047701452 0.51900005 4280931967
0.0036933676 0.047701452 0.51900005 4281182813
0.0045423508 0.047793362 0.52000004 4280788055
0.0053842179 0.047793362 0.52000004 4282160970
0.0062260847 0.047793362 0.52000004 4281963591
0.0079098186 0.047793362 0.52000004 4282879287
0.0087685157 0.047885273 0.52100003 4283532336
0.0096120015 0.047885273 0.52100003 4283269164
0.010475555 0.047977183 0.52200001 4283792428
0.012165765 0.047977183 0.52200001 4283986727
0.013035795 0.048069093 0.523 4283986727
0.01388252 0.048069093 0.523 4284116003
0.014757406 0.048161004 0.52400005 4283787038
0.016454091 0.048161004 0.52400005 4284178977
0.017302435 0.048161004 0.52400005 4284506146
0.018150777 0.048161004 0.52400005 4284506146
0.019071635 0.048344824 0.52600002 4285224994
0.023375368 0.050274942 0.54700005 4286009123
0.025284439 0.050550673 0.55000001 4286271270
0.026222467 0.05064258 0.551 4286337063
0.027163731 0.050734494 0.55200005 4286533418
0.028057406 0.050734494 0.55200005 4286401832
0.029898822 0.050826401 0.55300003 4287058749
0.030794116 0.050826401 0.55300003 4287453770
0.031689409 0.050826401 0.55300003 4287387977
0.032643624 0.050918315 0.55400002 4287782737
0.034437448 0.050918315 0.55400002 4287783768
0.03533436 0.050918315 0.55400002 4288770663
0.036231272 0.050918315 0.55400002 4288640622
0.037128184 0.050918315 0.55400002 4288772208
0.038922008 0.050918315 0.55400002 4289036661
0.03981892 0.050918315 0.55400002 4289036661
0.040715832 0.050918315 0.55400002 4289102454
0.042509656 0.050918315 0.55400002 4289168765
0.043406568 0.050918315 0.55400002 4289234558
0.044303481 0.050918315 0.55400002 4289300351
0.045200393 0.050918315 0.55400002 4289103490
0.046994217 0.050918315 0.55400002 4289103236
0.047891129 0.050918315 0.55400002 4289103236
0.048788041 0.050918315 0.55400002 4289103236
0.050581865 0.050918315 0.55400002 4289104003
0.051385857 0.050826401 0.55300003 4289169796
0.052281149 0.050826401 0.55300003 4289235589
0.054071736 0.050826401 0.55300003 4289302152
0.054967027 0.050826401 0.55300003 4289302152
0.055862322 0.050826401 0.55300003 4289302152
0.056757614 0.050826401 0.55300003 4289170566
0.058548201 0.050826401 0.55300003 4289301898
0.059443492 0.050826401 0.55300003 4289301898
0.060338788 0.050826401 0.55300003 4289367691
0.061234079 0.050826401 0.55300003 4289433738
0.063024662 0.050826401 0.55300003 4289565324
0.063919961 0.050826401 0.55300003 4289631117
0.064815253 0.050826401 0.55300003 4289827726
0.066605836 0.050826401 0.55300003 4289959312
0.067501128 0.050826401 0.55300003 4290025105
0.068396427 0.050826401 0.55300003 4290090898
0.069291718 0.050826401 0.55300003 4290288277
0.071082301 0.050826401 0.55300003 4290091668
0.071977593 0.050826401 0.55300003 4290157207
0.072872892 0.050826401 0.55300003 4290288793
0.074663475 0.050826401 0.55300003 4290419609
0.075558767 0.050826401 0.55300003 4290485402
0.076454058 0.050826401 0.55300003 4290551195
0.077489227 0.050918315 0.55400002 4290419609
0.079283051 0.050918315 0.55400002 4290486174
0.08017996 0.050918315 0.55400002 4290617760
0.08122322 0.051010225 0.55500001 4290486689
0.083020285 0.051010225 0.55500001 4290355873
0.08391881 0.051010225 0.55500001 4290421666
0.084970176 0.051102132 0.55600005 4290421666
0.085870326 0.051102132 0.55600005 4290553252
0.087670624 0.051102132 0.55600005 4290553252
0.088570774 0.051102132 0.55600005 4290290592
0.089470923 0.051102132 0.55600005 4290422178
0.090371072 0.051102132 0.55600005 4290553764
0.092005596 0.051010225 0.55500001 4290290590
0.092904121 0.051010225 0.55500001 4290422176
0.093633644 0.050918315 0.55400002 4290487973
0.095427468 0.050918315 0.55400002 4290553766
-0.048767857 0.048074052 0.514 4284237372
-0.048028961 0.048167583 0.51500005 4283845194
-0.047195189 0.048167583 0.51500005 4283976780
-0.045527644 0.048167583 0.51500005 4281163109
-0.044693872 0.048167583 0.51500005 4279811985
-0.0438601 0.048167583 0.51500005 4280140950
-0.042192556 0.048167583 0.51500005 4278377869
-0.041439097 0.04826111 0.51600003 4278248593
-0.040603705 0.04826111 0.51600003 4278248850
-0.039768312 0.04826111 0.51600003 4278249106
-0.038097531 0.04826111 0.51600003 4278249365
-0.037262142 0.04826111 0.51600003 4278249365
-0.036426749 0.04826111 0.51600003 4278249365
-0.03559136 0.04826111 0.51600003 4278380951
-0.033920575 0.04826111 0.51600003 4278249879
-0.033085186 0.04826111 0.51600003 4278315670
-0.032249793 0.04826111 0.51600003 4278447256
-0.030638274 0.048354641 0.51700002 4278513814
-0.029801263 0.048354641 0.51700002 4278252180
-0.028964253 0.048354641 0.51700002 4278252180
-0.028127244 0.048354641 0.51700002 4278252432
-0.026453225 0.048354641 0.51700002 4278318990
-0.025616216 0.048354641 0.51700002 4278384783
-0.024779204 0.048354641 0.51700002 4278385805
-0.023105185 0.048354641 0.51700002 4278321035
-0.022268174 0.048354641 0.51700002 4278321035
-0.021431165 0.048354641 0.51700002 4278386578
-0.020594155 0.048354641 0.51700002 4278254992
-0.018920135 0.048354641 0.51700002 4278253968
-0.018083125 0.048354641 0.51700002 4278252182
-0.017246114 0.048354641 0.51700002 4278252182
-0.015572095 0.048354641 0.51700002 4278250395
-0.014735085 0.048354641 0.51700002 4278252956
-0.013898075 0.048354641 0.51700002 4278976424
-0.013061064 0.048354641 0.51700002 4278450851
-0.011387045 0.048354641 0.51700002 4281663438
-0.010550034 0.048354641 0.51700002 4278514334
-0.0097130239 0.048354641 0.51700002 4278252955
-0.0080390042 0.048354641 0.51700002 4278255521
-0.0072019943 0.048354641 0.51700002 4278255520
-0.0063649849 0.048354641 0.51700002 4278255516
-0.005527975 0.048354641 0.51700002 4278255516
-0.0038614091 0.048448171 0.51800001 4278255259
-0.0030227804 0.048448171 0.51800001 4278255514
-0.0021841514 0.048448171 0.51800001 4278255514
-0.0013455225 0.048448171 0.51800001 4278255512
0.0003317355 0.048448171 0.51800001 4278583197
0.0011703644 0.048448171 0.51800001 4278254741
0.0020128719 0.048541699 0.51900005 4281334432
0.0036933676 0.048541699 0.51900005 4282047625
0.0045336154 0.048541699 0.51900005 4280994937
0.0053842179 0.048635229 0.52000004 4279607378
0.0062260847 0.048635229 0.52000004 4279673171
0.0079098186 0.048635229 0.52000004 4281963845
0.0087516857 0.048635229 0.52000004 4283271996
0.0096120015 0.048728757 0.52100003 4283271996
0.010455487 0.048728757 0.52100003 4283728949
0.012142459 0.048728757 0.52100003 4283595049
0.01301087 0.048822287 0.52200001 4283726635
0.013855975 0.048822287 0.52200001 4284053290
0.014701081 0.048822287 0.52200001 4283526946
0.01639129 0.048822287 0.52200001 4283787038
0.017236395 0.048822287 0.52200001 4284179747
0.018081499 0.048822287 0.52200001 4284245540
0.01977171 0.048822287 0.52200001 4284439587
0.020616814 0.048822287 0.52200001 4284831265
0.026127286 0.05134758 0.54900002 4286074918
-0.071140416 0.05252184 0.55200005 4284954404
-0.070246741 0.05252184 0.55200005 4284888611
-0.069353066 0.05252184 0.55200005 4284429857
-0.068459392 0.05252184 0.55200005 4284429857
-0.066672042 0.05252184 0.55200005 4284429857
-0.065778367 0.05252184 0.55200005 4284430374
-0.0648847 0.05252184 0.55200005 4284561960
-0.06309735 0.05252184 0.55200005 4284365099
-0.062203676 0.05252184 0.55200005 4284234540
-0.061310001 0.05252184 0.55200005 4284168747
-0.060416326 0.05252184 0.55200005 4284103724
-0.058628976 0.05252184 0.55200005 4284169517
0.027114524 0.052426692 0.551 4286008359
0.028057406 0.05252184 0.55200005 4285876773
0.029844753 0.05252184 0.55200005 4286532909
0.030794116 0.052616987 0.55300003 4286532909
0.031689409 0.052616987 0.55300003 4286598702
0.032643624 0.052712139 0.55400002 4287058231
0.034437448 0.052712139 0.55400002 4287322436
0.03533436 0.052712139 0.55400002 4287454022
0.036231272 0.052712139 0.55400002 4287849559
0.037128184 0.052712139 0.55400002 4288507489
0.038922008 0.052712139 0.55400002 4288442210
0.03981892 0.052712139 0.55400002 4289035378
0.040715832 0.052712139 0.55400002 4289035378
0.042509656 0.052712139 0.55400002 4289167736
0.043406568 0.052712139 0.55400002 4289037179
0.044303481 0.052712139 0.55400002 4289037179
0.045200393 0.052712139 0.55400002 4289037949
0.046994217 0.052712139 0.55400002 4289103488
0.047891129 0.052712139 0.55400002 4289103488
0.048788041 0.052712139 0.55400002 4289169281
0.050581865 0.052712139 0.55400002 4289235074
0.051478777 0.052712139 0.55400002 4289235074
0.052375689 0.052712139 0.55400002 4289235587
0.053272601 0.052712139 0.55400002 4289104001
0.055066425 0.052712139 0.55400002 4289432968
0.055862322 0.052616987 0.55300003 4289170312
0.056757614 0.052616987 0.55300003 4289104519
0.058548201 0.052616987 0.55300003 4289105032
0.059443492 0.052616987 0.55300003 4288973448
0.060338788 0.052616987 0.55300003 4289105034
0.061234079 0.052616987 0.55300003 4289301900
0.063024662 0.052616987 0.55300003 4289433486
0.063919961 0.052616987 0.55300003 4289367693
0.064815253 0.052616987 0.55300003 4289433999
0.066605836 0.052616987 0.55300003 4289434769
0.067501128 0.052616987 0.55300003 4289632148
0.068396427 0.052616987 0.55300003 4289697941
0.069291718 0.052616987 0.55300003 4289697941
0.071082301 0.052616987 0.55300003 4289829527
0.071977593 0.052616987 0.55300003 4289829529
0.072872892 0.052616987 0.55300003 4289895322
0.074663475 0.052616987 0.55300003 4290091931
0.075558767 0.052616987 0.55300003 4290223515
0.076592311 0.052712139 0.55400002 4290355101
0.077489227 0.052712139 0.55400002 4290289308
0.079283051 0.052712139 0.55400002 4290355103
0.080324687 0.052807286 0.55500001 4290486689
0.08122322 0.052807286 0.55500001 4290355619
0.083020285 0.052807286 0.55500001 4290552998
0.084070019 0.052902434 0.55600005 4290618791
0.084970176 0.052902434 0.55600005 4290553252
0.085870326 0.052902434 0.55600005 4290553252
0.087670624 0.052902434 0.55600005 4290487973
0.088570774 0.052902434 0.55600005 4290290594
0.089470923 0.052902434 0.55600005 4290422180
0.090371072 0.052902434 0.55600005 4290553766
0.092171371 0.052902434 0.55600005 4290488486
0.092904121 0.052807286 0.55500001 4290422693
0.093802653 0.052807286 0.55500001 4290488232
0.095599718 0.052807286 0.55500001 4290554279
-0.071140416 0.053415515 0.55200005 4284823333
-0.070246741 0.053415515 0.55200005 4284757540
-0.069353066 0.053415515 0.55200005 4284495652
-0.068459392 0.053415515 0.55200005 4284495652
-0.066672042 0.053415515 0.55200005 4284364579
-0.065778367 0.053415515 0.55200005 4284299558
-0.0648847 0.053415515 0.55200005 4284365351
-0.06309735 0.053415515 0.55200005 4284299819
-0.062203676 0.053415515 0.55200005 4284234286
-0.061310001 0.053415515 0.55200005 4284168493
-0.060416326 0.053415515 0.55200005 4284234286
-0.049696505 0.049835127 0.51500005 4283974968
-0.048862733 0.049835127 0.51500005 4284106554
-0.048028961 0.049835127 0.51500005 4282339672
-0.047195189 0.049835127 0.51500005 4281813328
-0.045527644 0.049835127 0.51500005 4281970083
-0.04478066 0.049931891 0.51600003 4278701457
-0.043945268 0.049931891 0.51600003 4279030422
-0.043109879 0.049931891 0.51600003 4278246542
-0.041439097 0.049931891 0.51600003 4278444691
-0.040603705 0.049931891 0.51600003 4278707863
-0.039768312 0.049931891 0.51600003 4278902195
-0.038097531 0.049931891 0.51600003 4278237612
-0.037262142 0.049931891 0.51600003 4278235299
-0.036426749 0.049931891 0.51600003 4278234534
-0.035660334 0.050028659 0.51700002 4278234791
-0.033986311 0.050028659 0.51700002 4278305978
-0.033149302 0.050028659 0.51700002 4278771122
-0.032312293 0.050028659 0.51700002 4279231673
-0.030638274 0.050028659 0.51700002 4278578591
-0.029801263 0.050028659 0.51700002 4278251925
-0.028964253 0.050028659 0.51700002 4278252182
-0.028127244 0.050028659 0.51700002 4278252434
-0.026504392 0.050125431 0.51800001 4278385553
-0.025665762 0.050125431 0.51800001 4278253967
-0.024827134 0.050125431 0.51800001 4278253965
-0.023988504 0.050125431 0.51800001 4278385551
-0.022311246 0.050125431 0.51800001 4278451601
-0.021472618 0.050125431 0.51800001 4278321039
-0.020633988 0.050125431 0.51800001 4278255246
-0.01895673 0.050125431 0.51800001 4278255244
-0.018118102 0.050125431 0.51800001 4278254987
-0.017246114 0.050028659 0.51700002 4278254987
-0.015572095 0.050028659 0.51700002 4278452113
-0.014735085 0.050028659 0.51700002 4278254223
-0.013898075 0.050028659 0.51700002 4278253709
-0.013061064 0.050028659 0.51700002 4278779808
-0.011387045 0.050028659 0.51700002 4278252948
-0.010550034 0.050028659 0.51700002 4278320283
-0.0097130239 0.050028659 0.51700002 4278255003
-0.0080390042 0.050028659 0.51700002 4278255276
-0.0072019943 0.050028659 0.51700002 4278254505
-0.0063649849 0.050028659 0.51700002 4278386378
-0.005527975 0.050028659 0.51700002 4278252479
-0.0038614091 0.050125431 0.51800001 4280811487
-0.0030227804 0.050125431 0.51800001 4280745931
-0.0021841514 0.050125431 0.51800001 4278316454
-0.0013455225 0.050125431 0.51800001 4278255017
0.0003317355 0.050125431 0.51800001 4278255523
0.0011703644 0.050125431 0.51800001 4278255523
0.0020128719 0.050222196 0.51900005 4278255518
0.0036933676 0.050222196 0.51900005 4279303330
0.0045336154 0.050222196 0.51900005 4279762857
0.0053738635 0.050222196 0.51900005 4280347550
0.0062260847 0.050318964 0.52000004 4278702725
0.0079098186 0.050318964 0.52000004 4278305907
0.0087516857 0.050318964 0.52000004 4280525900
0.009593552 0.050318964 0.52000004 4280657486
0.010435419 0.050318964 0.52000004 4282879802
0.012142459 0.050415728 0.52100003 4283534135
0.012985945 0.050415728 0.52100003 4283665721
0.013829431 0.050415728 0.52100003 4283073838
0.014701081 0.050512496 0.52200001 4282810666
0.01639129 0.050512496 0.52200001 4282873892
0.017203376 0.050415728 0.52100003 4283527977
0.018081499 0.050512496 0.52200001 4283396391
0.019695954 0.050318964 0.52000004 4283852590
0.020537822 0.050318964 0.52000004 4284244270
0.021461919 0.050512496 0.52200001 4284178477
0.022435226 0.050802801 0.52500004 4284701737
0.025841743 0.052544609 0.54300004 4284961829
0.026966894 0.053028446 0.54800004 4285484584
0.027955748 0.053221978 0.55000001 4285352998
0.029844753 0.053415515 0.55200005 4286008361
0.030738428 0.053415515 0.55200005 4286336043
0.031689409 0.053512279 0.55300003 4286401836
0.032584701 0.053512279 0.55300003 4286729518
0.034437448 0.053609047 0.55400002 4287255610
0.03533436 0.053609047 0.55400002 4287255610
0.036231272 0.053609047 0.55400002 4287453509
0.037128184 0.053609047 0.55400002 4287848267
0.038922008 0.053609047 0.55400002 4288047190
0.03981892 0.053609047 0.55400002 4288508775
0.040715832 0.053609047 0.55400002 4288442982
0.042509656 0.053609047 0.55400002 4288903792
0.043406568 0.053609047 0.55400002 4288970870
0.044303481 0.053609047 0.55400002 4289102456
0.045200393 0.053609047 0.55400002 4288906361
0.046994217 0.053609047 0.55400002 4289037949
0.047891129 0.053609047 0.55400002 4289103742
0.048788041 0.053609047 0.55400002 4289169535
0.050581865 0.053609047 0.55400002 4289235328
0.051478777 0.053609047 0.55400002 4289235328
0.052375689 0.053609047 0.55400002 4289235587
0.053272601 0.053609047 0.55400002 4289104001
0.055066425 0.053609047 0.55400002 4289235589
0.055963337 0.053609047 0.55400002 4289104773
0.056860249 0.053609047 0.55400002 4289170566
0.058654074 0.053609047 0.55400002 4289039239
0.059550986 0.053609047 0.55400002 4288973448
0.060338788 0.053512279 0.55300003 4289039241
0.061234079 0.053512279 0.55300003 4289236620
0.063024662 0.053512279 0.55300003 4289302413
0.063919961 0.053512279 0.55300003 4289236620
0.064815253 0.053512279 0.55300003 4289368206
0.066605836 0.053512279 0.55300003 4289368976
0.067501128 0.053512279 0.55300003 4289434769
0.068396427 0.053512279 0.55300003 4289500562
0.069291718 0.053512279 0.55300003 4289632148
0.071082301 0.053512279 0.55300003 4289763736
0.071977593 0.053512279 0.55300003 4289829529
0.072872892 0.053512279 0.55300003 4289829529
0.074663475 0.053512279 0.55300003 4289961115
0.075695403 0.053609047 0.55400002 4290092701
0.076592311 0.053609047 0.55400002 4290224287
0.077489227 0.053609047 0.55400002 4290224285
0.079283051 0.053609047 0.55400002 4290224287
0.080324687 0.053705819 0.55500001 4290224287
0.08122322 0.053705819 0.55500001 4290289826
0.083020285 0.053705819 0.55500001 4290552998
0.084070019 0.053802583 0.55600005 4290618791
0.084970176 0.053802583 0.55600005 4290487719
0.085870326 0.053802583 0.55600005 4290487719
0.087670624 0.053802583 0.55600005 4290487973
0.088570774 0.053802583 0.55600005 4290487719
0.089470923 0.053802583 0.55600005 4290421926
0.090371072 0.053802583 0.55600005 4290487719
0.092171371 0.053802583 0.55600005 4290554025
0.09307152 0.053802583 0.55600005 4290488232
0.09397167 0.053802583 0.55600005 4290488232
0.095599718 0.053705819 0.55500001 4290423209
-0.071140416 0.054309189 0.55200005 4284691747
-0.070246741 0.054309189 0.55200005 4284757540
-0.069478706 0.054407574 0.55300003 4284430372
-0.068583414 0.054407574 0.55300003 4284430372
-0.066792831 0.054407574 0.55300003 4284364579
-0.065897539 0.054407574 0.55300003 4284233763
-0.06500224 0.054407574 0.55300003 4284299556
-0.064106949 0.054407574 0.55300003 4284234026
-0.062316366 0.054407574 0.55300003 4284234288
-0.061310001 0.054309189 0.55200005 4284168495
-0.060416326 0.054309189 0.55200005 4284234288
-0.051463787 0.050767284 0.51600003 4284236341
-0.050628398 0.050767284 0.51600003 4284302134
-0.048957616 0.050767284 0.51600003 4284041274
-0.048122223 0.050767284 0.51600003 4281291613
-0.047286835 0.050767284 0.51600003 4280896855
-0.045616049 0.050767284 0.51600003 4281714865
-0.04478066 0.050767284 0.51600003 4278703507
-0.043945268 0.050767284 0.51600003 4278769300
-0.043109879 0.050767284 0.51600003 4278246546
-0.041439097 0.050767284 0.51600003 4278705322
-0.040603705 0.050767284 0.51600003 4278240145
-0.039768312 0.050767284 0.51600003 4278233005
-0.038097531 0.050767284 0.51600003 4278233024
-0.037334353 0.050865673 0.51700002 4278830044
-0.036497343 0.050865673 0.51700002 4278699489
-0.035660334 0.050865673 0.51700002 4278232770
-0.033986311 0.050865673 0.51700002 4278234313
-0.033149302 0.050865673 0.51700002 4278235062
-0.032312293 0.050865673 0.51700002 4278238403
-0.030638274 0.050865673 0.51700002 4279100341
-0.029858908 0.050964057 0.51800001 4278251673
-0.029020278 0.050964057 0.51800001 4278251930
-0.02818165 0.050964057 0.51800001 4278252690
-0.026504392 0.050964057 0.51800001 4278385301
-0.025665762 0.050964057 0.51800001 4278385301
-0.024827134 0.050964057 0.51800001 4278253969
-0.023988504 0.050964057 0.51800001 4278253455
-0.022311246 0.050964057 0.51800001 4278451603
-0.021472618 0.050964057 0.51800001 4278320785
-0.020633988 0.050964057 0.51800001 4278254735
-0.01895673 0.050964057 0.51800001 4278254475
-0.018118102 0.050964057 0.51800001 4278255246
-0.017279472 0.050964057 0.51800001 4278321039
-0.016440844 0.050964057 0.51800001 4278254991
-0.014735085 0.050865673 0.51700002 4278254479
-0.013898075 0.050865673 0.51700002 4278255250
-0.013061064 0.050865673 0.51700002 4278254220
-0.011387045 0.050865673 0.51700002 4278255505
-0.010550034 0.050865673 0.51700002 4278255505
-0.0097130239 0.050865673 0.51700002 4278255507
-0.0080390042 0.050865673 0.51700002 4278648754
-0.0072019943 0.050865673 0.51700002 4279173050
-0.0063772961 0.050964057 0.51800001 4278583245
-0.0055386671 0.050964057 0.51800001 4278254535
-0.0038614091 0.050964057 0.51800001 4279171027
-0.0030227804 0.050964057 0.51800001 4280352740
-0.0021841514 0.050964057 0.51800001 4278251203
-0.0013455225 0.050964057 0.51800001 4278251951
0.0003317355 0.050964057 0.51800001 4278255535
0.0011703644 0.050964057 0.51800001 4278255278
0.0020089934 0.050964057 0.51800001 4278255525
0.0036933676 0.051062442 0.51900005 4278320803
0.0045336154 0.051062442 0.51900005 4278845355
0.0053738635 0.051062442 0.51900005 4281008056
0.0062141116 0.051062442 0.51900005 4279628963
0.0079098186 0.051160831 0.52000004 4278967694
0.0087516857 0.051160831 0.52000004 4280210291
0.009593552 0.051160831 0.52000004 4278894431
0.010435419 0.051160831 0.52000004 4281642319
0.012119153 0.051160831 0.52000004 4283012933
0.012985945 0.051259216 0.52100003 4282618175
0.013829431 0.051259216 0.52100003 4282747710
0.015516403 0.051259216 0.52100003 4282679861
0.01635989 0.051259216 0.52100003 4282416689
0.017203376 0.051259216 0.52100003 4283004976
0.01801222 0.051160831 0.52000004 4282939183
0.019695954 0.051160831 0.52000004 4283526190
0.020537822 0.051160831 0.52000004 4284048684
0.021379689 0.051160831 0.52000004 4283917098
0.022307023 0.051357601 0.52200001 4284243753
0.024135148 0.051652763 0.52500004 4284635944
0.025127882 0.051947922 0.528 4284635944
0.029628487 0.053915646 0.54800004 4285550123
0.030627057 0.054112416 0.55000001 4286139947
0.031574801 0.054210804 0.551 4286008361
0.032525778 0.054309189 0.55200005 4286597932
0.034375288 0.054407574 0.55300003 4287058229
0.035270579 0.054407574 0.55300003 4286992436
0.036231272 0.054505959 0.55400002 4287189303
0.037128184 0.054505959 0.55400002 4287386682
0.038922008 0.054505959 0.55400002 4287914058
0.03981892 0.054505959 0.55400002 4287783505
0.040715832 0.054505959 0.55400002 4287915091
0.042509656 0.054505959 0.55400002 4288903533
0.043406568 0.054505959 0.55400002 4288707696
0.044303481 0.054505959 0.55400002 4288905075
0.045200393 0.054505959 0.55400002 4288840566
0.046994217 0.054505959 0.55400002 4288840568
0.047891129 0.054505959 0.55400002 4289103740
0.048788041 0.054505959 0.55400002 4289038460
0.050581865 0.054505959 0.55400002 4289170048
0.051478777 0.054505959 0.55400002 4289170048
0.052375689 0.054505959 0.55400002 4289235841
0.053272601 0.054505959 0.55400002 4289170048
0.055066425 0.054505959 0.55400002 4289235587
0.055963337 0.054505959 0.55400002 4289104771
0.056860249 0.054505959 0.55400002 4289104771
0.058654074 0.054505959 0.55400002 4289104773
0.059550986 0.054505959 0.55400002 4289038980
0.060447898 0.054505959 0.55400002 4289170566
0.06134481 0.054505959 0.55400002 4289301898
0.063138634 0.054505959 0.55400002 4289302411
0.063919961 0.054407574 0.55300003 4289236618
0.064815253 0.054407574 0.55300003 4289302411
0.066605836 0.054407574 0.55300003 4289303181
0.067501128 0.054407574 0.55300003 4289303181
0.068396427 0.054407574 0.55300003 4289368974
0.069291718 0.054407574 0.55300003 4289500560
0.071082301 0.054407574 0.55300003 4289697941
0.071977593 0.054407574 0.55300003 4289697943
0.072872892 0.054407574 0.55300003 4289763736
0.074663475 0.054407574 0.55300003 4289895068
0.075695403 0.054505959 0.55400002 4289895322
0.076592311 0.054505959 0.55400002 4290158494
0.077489227 0.054505959 0.55400002 4290224287
0.079283051 0.054505959 0.55400002 4290224287
0.080324687 0.054604348 0.55500001 4290158494
0.08122322 0.054604348 0.55500001 4290159008
0.083020285 0.054604348 0.55500001 4290421926
0.084070019 0.054702733 0.55600005 4290553512
0.084970176 0.054702733 0.55600005 4290487973
0.085870326 0.054702733 0.55600005 4290487973
0.087670624 0.054702733 0.55600005 4290487973
0.088570774 0.054702733 0.55600005 4290422693
0.089470923 0.054702733 0.55600005 4290422693
0.090371072 0.054702733 0.55600005 4290422439
0.092171371 0.054702733 0.55600005 4290488232
0.09307152 0.054702733 0.55600005 4290488232
0.09397167 0.054702733 0.55600005 4290357416
0.095771976 0.054702733 0.55600005 4290554795
-0.072164588 0.055302866 0.55300003 4284823072
-0.070374005 0.055302866 0.55300003 4284691745
-0.069478706 0.055302866 0.55300003 4284364579
-0.068583414 0.055302866 0.55300003 4284430372
-0.066792831 0.055302866 0.55300003 4284232993
-0.065897539 0.055302866 0.55300003 4284364579
-0.06500224 0.055302866 0.55300003 4284430372
-0.064106949 0.055302866 0.55300003 4284233772
-0.062316366 0.055302866 0.55300003 4284103472
-0.061310001 0.055202864 0.55200005 4284037679
-0.051463787 0.051602673 0.51600003 4284302134
-0.050628398 0.051602673 0.51600003 4284302134
-0.048957616 0.051602673 0.51600003 4283713856
-0.048122223 0.051602673 0.51600003 4279653216
-0.047286835 0.051602673 0.51600003 4280179560
-0.045616049 0.051602673 0.51600003 4279812510
-0.04478066 0.051602673 0.51600003 4278572948
-0.043945268 0.051602673 0.51600003 4278572948
-0.043109879 0.051602673 0.51600003 4278574747
-0.041439097 0.051602673 0.51600003 4278237609
-0.040603705 0.051602673 0.51600003 4278236067
-0.039845381 0.051702682 0.51700002 4279225837
-0.038171362 0.051702682 0.51700002 4278235870
-0.037334353 0.051702682 0.51700002 4279817471
-0.036497343 0.051702682 0.51700002 4279028216
-0.035660334 0.051702682 0.51700002 4278238186
-0.033986311 0.051702682 0.51700002 4279819519
-0.033149302 0.051702682 0.51700002 4278238931
-0.032374796 0.051802687 0.51800001 4278237132
-0.031536166 0.051802687 0.51800001 4278234535
-0.029858908 0.051802687 0.51800001 4278447270
-0.029020278 0.051802687 0.51800001 4278447270
-0.02818165 0.051802687 0.51800001 4278252436
-0.026504392 0.051802687 0.51800001 4278253458
-0.02571531 0.051902689 0.51900005 4278253715
-0.024875063 0.051902689 0.51900005 4278253712
-0.024034815 0.051902689 0.51900005 4278253455
-0.022354318 0.051902689 0.51900005 4278385810
-0.021514071 0.051902689 0.51900005 4278254994
-0.020633988 0.051802687 0.51800001 4278254737
-0.01895673 0.051802687 0.51800001 4278254221
-0.018118102 0.051802687 0.51800001 4278254735
-0.017279472 0.051802687 0.51800001 4278320785
-0.016440844 0.051802687 0.51800001 4278255506
-0.014763586 0.051802687 0.51800001 4278255506
-0.013924957 0.051802687 0.51800001 4278255505
-0.013086327 0.051802687 0.51800001 4278255502
-0.011387045 0.051702682 0.51700002 4278255502
-0.010550034 0.051702682 0.51700002 4278255501
-0.0097130239 0.051702682 0.51700002 4278255502
-0.0080390042 0.051702682 0.51700002 4278321056
-0.007215925 0.051802687 0.51800001 4278321056
-0.0063772961 0.051802687 0.51800001 4278251950
-0.0055386671 0.051802687 0.51800001 4278779840
-0.0038614091 0.051802687 0.51800001 4280090592
-0.0030227804 0.051802687 0.51800001 4280025070
-0.0021841514 0.051802687 0.51800001 4278777307
-0.0013455225 0.051802687 0.51800001 4281073652
0.0003317355 0.051802687 0.51800001 4278253244
0.0011703644 0.051802687 0.51800001 4278253244
0.0020089934 0.051802687 0.51800001 4278255282
0.0036862516 0.051802687 0.51800001 4278255529
0.0045336154 0.051902689 0.51900005 4278452141
0.0053738635 0.051902689 0.51900005 4279304107
0.0062141116 0.051902689 0.51900005 4279566255
0.0078946073 0.051902689 0.51900005 4280287151
0.0087516857 0.052002698 0.52000004 4278969727
0.009593552 0.052002698 0.52000004 4279298692
0.010435419 0.052002698 0.52000004 4280080240
0.012119153 0.052002698 0.52000004 4280986451
0.01296102 0.052002698 0.52000004 4280657486
0.013802886 0.052002698 0.52000004 4281765442
0.015516403 0.0521027 0.52100003 4282420029
0.01635989 0.0521027 0.52100003 4282420029
0.017170353 0.052002698 0.52000004 4282877754
0.01801222 0.052002698 0.52000004 4282680375
0.019695954 0.052002698 0.52000004 4283398451
0.020537822 0.052002698 0.52000004 4283789616
0.021420805 0.0521027 0.52100003 4283526444
0.023107776 0.0521027 0.52100003 4283983145
0.023997234 0.052202705 0.52200001 4284244520
0.02493752 0.052402716 0.52400005 4284178727
