# .PCD v0.7 - Point Cloud Data file format
VERSION 0.7
FIELDS x y z
SIZE 4 4 4
TYPE F F F
COUNT 1 1 1
WIDTH 101
HEIGHT 1
VIEWPOINT 0 0 0 1 0 0 0
POINTS 101
DATA ascii
-0.095374592 -0.059082903 0.30900002
-0.10162713 -0.055153873 0.31550005
-0.094851188 -0.0545872 0.31333071
-0.10063615 -0.04934901 0.31850001
-0.094601199 -0.048415508 0.31802541
0.092337184 -0.039001379 0.31859267
-0.10379864 -0.051770054 0.32100004
-0.10190666 -0.045191657 0.32185295
-0.095169887 -0.043258637 0.32225916
-0.085215911 -0.043009121 0.3222805
-0.10129941 -0.038831238 0.32800001
-0.094699934 -0.036869273 0.32732788
-0.085083731 -0.03691899 0.32733572
-0.036391944 -0.0334589 0.32880571
-0.022597989 -0.034235246 0.32847637
-0.01513397 -0.034466311 0.32823113
-0.00476263 -0.033706412 0.32786757
0.093034387 -0.033812325 0.32238615
0.092863157 -0.027495004 0.32770425
-0.10157802 -0.034039304 0.33199996
-0.095104337 -0.032099299 0.33113748
-0.085084103 -0.03206436 0.33078417
-0.034743998 -0.031381898 0.33061662
-0.025026228 -0.031368565 0.3303276
-0.015599654 -0.030803796 0.33014283
-0.0047354382 -0.030528139 0.32999995
0.097820207 -0.030604629 0.33025002
-0.10090988 -0.028150916 0.33772731
-0.094542779 -0.02576099 0.33610466
-0.085017435 -0.025696643 0.33585098
-0.074924707 -0.025742739 0.33573806
-0.034967013 -0.02503874 0.33544564
-0.025019547 -0.02502198 0.33498105
-0.015046667 -0.024954094 0.33446965
0.093369566 -0.023132134 0.3312808
-0.024103312 -0.019608317 0.33900002
-0.01559558 -0.019449294 0.33900011
0.092015132 -0.01806532 0.33509767
-0.10187363 -0.024325466 0.34139293
-0.096337035 -0.021134911 0.34011117
-0.084582038 -0.020682914 0.34000003
-0.075463384 -0.020715121 0.34000003
-0.10028186 -0.017461348 0.3448
-0.094438761 -0.015660862 0.34406134
-0.085021853 -0.015209846 0.34444043
-0.07504718 -0.015120547 0.34437376
-0.025095439 -0.014879957 0.34318238
0.064990051 -0.012518512 0.3408877
-0.095210016 -0.010655067 0.35050002
0.27313191 0.055123664 0.44000003
0.28253743 0.055140972 0.44200003
0.27938449 0.064402297 0.44366667
0.28191113 0.064236075 0.44378793
0.27730989 0.051674388 0.45250002
0.28700942 0.061621893 0.45900002
-0.15222733 0.049941685 0.47700006
-0.14467551 0.049941685 0.47700006
-0.13460639 0.049941685 0.47700006
-0.12445722 0.049767919 0.4763
-0.11533955 0.049381375 0.47645003
-0.10527581 0.049376145 0.47639999
-0.095136985 0.049334586 0.47599992
-0.088843554 0.049456008 0.47620001
-0.16254628 0.051599987 0.47888893
-0.15491669 0.053462941 0.47841549
-0.14506094 0.054115869 0.47827154
-0.13514082 0.053928941 0.47824249
-0.12461106 0.053914353 0.47772312
-0.1150406 0.054425098 0.47790679
-0.10495636 0.054032102 0.47779089
-0.095093317 0.054196265 0.47761112
-0.088335201 0.053426772 0.47760877
-0.036585312 0.054195616 0.47900003
0.10787985 0.063131168 0.47400004
-0.17068107 0.05505703 0.48480001
-0.16509154 0.056224138 0.48242849
-0.15574731 0.058382969 0.48080766
-0.14472274 0.0589302 0.48049998
-0.13440731 0.058679841 0.48043475
-0.1257527 0.058630411 0.48039129
-0.11436944 0.05911199 0.4802143
-0.10529674 0.058837209 0.48033324
-0.094891667 0.05899414 0.48029411
-0.088500485 0.058470983 0.4808889
-0.071640164 0.057478514 0.48418188
-0.035180729 0.057339117 0.48041171
-0.1640912 0.062793352 0.48572221
-0.15452549 0.064854428 0.48574683
-0.14497542 0.064843096 0.48484835
-0.13509531 0.064988993 0.48434064
-0.12520453 0.065177038 0.48505625
-0.11507495 0.065093927 0.4851889
-0.16505794 0.067730822 0.49188885
-0.15823792 0.069093652 0.49000001
-0.072564811 0.076173246 0.50050002
0.07135994 0.29857436 0.84900004
0.072671272 0.30596781 0.84785718
0.076914527 0.30445275 0.852
0.082779169 0.30492246 0.85400009
0.083471082 0.31053278 0.8506667
0.047450598 0.31501222 0.8848235
