# .PCD v0.7 - Point Cloud Data file format
VERSION 0.7
FIELDS x y z
SIZE 4 4 4
TYPE F F F
COUNT 1 1 1
WIDTH 263
HEIGHT 1
VIEWPOINT 0 0 0 1 0 0 0
POINTS 263
DATA ascii
0.12898129 -0.11876918 0.28812501
0.13059752 -0.11818542 0.28800002
0.12932941 -0.12044326 0.29200003
0.12910479 -0.11288799 0.29577422
0.13029197 -0.11251986 0.29511115
0.12930949 -0.1083282 0.29654998
0.13129824 -0.10753181 0.29606062
-0.12257725 -0.10105432 0.30878946
-0.11834054 -0.1008748 0.30894446
0.096106395 -0.1009544 0.30287501
0.12964667 -0.10552975 0.30133337
0.13163093 -0.10346389 0.30084848
-0.12307302 -0.099407531 0.30900002
-0.11850709 -0.099407524 0.30900002
0.079548419 -0.090475775 0.30600002
0.08583685 -0.092574067 0.30430031
0.094751209 -0.094672501 0.3031193
0.10486874 -0.092555165 0.30388111
0.11468162 -0.092307635 0.30405971
0.12440151 -0.091461278 0.30420598
0.13302492 -0.094903246 0.30266684
0.068952382 -0.082199477 0.30884212
0.075609155 -0.083987199 0.30740267
0.085142553 -0.08490596 0.30669463
0.094916292 -0.085007019 0.3062391
0.10491066 -0.084914535 0.30606648
0.11500563 -0.084846981 0.30605024
0.12490913 -0.084962964 0.30574337
0.13241193 -0.08413741 0.30604663
0.14055979 -0.087175548 0.30500001
0.076082118 -0.079282895 0.30900002
0.085723341 -0.078704841 0.30885714
0.094977766 -0.077675231 0.30865452
0.1049924 -0.077996798 0.3087745
0.11539723 -0.077288359 0.30853465
0.12499929 -0.076296672 0.30868503
0.13404347 -0.076920681 0.30842489
0.14104882 -0.076231353 0.30885717
-0.13250275 -0.092484362 0.31177056
-0.12485026 -0.094562449 0.31075385
-0.11579932 -0.094179027 0.31110972
-0.10791826 -0.090658069 0.31244451
-0.14247021 -0.082699955 0.31533799
-0.13481425 -0.084903017 0.31416836
-0.12524298 -0.085310437 0.3146562
-0.11476035 -0.085253842 0.31423774
-0.10547493 -0.084600657 0.3148416
0.066929609 -0.080780022 0.31021735
0.065257035 -0.074662298 0.31160659
0.074864343 -0.074407846 0.31109697
0.084857635 -0.073906809 0.31106049
0.094908535 -0.072634317 0.31093314
0.10487419 -0.073146001 0.31029478
0.11454991 -0.072769821 0.31045541
0.12473729 -0.071413063 0.31016418
0.13468294 -0.072012164 0.31025022
0.14088054 -0.072251014 0.31054547
-0.17027782 -0.05653258 0.32900003
-0.16337928 -0.054878145 0.3269091
-0.15485334 -0.055068184 0.32563901
-0.14505342 -0.055177886 0.325317
-0.13495256 -0.055197198 0.32508755
-0.12492609 -0.055108376 0.32478729
-0.11506198 -0.055156469 0.32500461
-0.10510436 -0.05517194 0.325192
-0.095129147 -0.055219296 0.32525688
-0.085105576 -0.055256311 0.32525468
-0.075090393 -0.055127554 0.32536235
-0.066709004 -0.052469894 0.32674322
0.027492624 -0.051680502 0.32252845
-0.16233319 -0.048086215 0.32858551
-0.15509692 -0.047048897 0.32843506
-0.14459181 -0.046353929 0.32823381
-0.13519675 -0.045486357 0.32811129
-0.1249891 -0.045493387 0.32815334
-0.11521679 -0.045725022 0.32844228
-0.10523864 -0.046627544 0.32838479
-0.094791681 -0.046633635 0.32824796
-0.085065871 -0.046277381 0.32799956
-0.074927725 -0.046074156 0.32798856
-0.06517373 -0.045925166 0.328255
-0.058646157 -0.04404505 0.3289758
0.0095378421 -0.040312659 0.32700002
0.01651852 -0.042737734 0.32576257
0.025168752 -0.044790383 0.32461545
0.035042737 -0.044927228 0.32419738
0.044970009 -0.044964366 0.32424581
0.055104777 -0.045012865 0.32375544
0.06502419 -0.044979099 0.32349819
0.074944071 -0.0449901 0.3229695
0.085037768 -0.045212902 0.3222248
0.095042847 -0.045003727 0.32155105
0.10478013 -0.043562591 0.32102409
0.11467848 -0.042296793 0.32053745
0.1242114 -0.04160668 0.32030118
0.13338055 -0.042329069 0.32049999
-0.14110906 -0.037781239 0.32900003
-0.13763659 -0.039170228 0.32900003
-0.11194031 -0.039864723 0.32900003
-0.10256463 -0.038475733 0.32900003
-0.094898619 -0.03709222 0.32300001
-0.089716494 -0.037086744 0.32900003
-0.07251092 -0.03635538 0.32866669
-0.034697123 -0.033922937 0.32900003
-0.02432142 -0.035115879 0.32900017
-0.010512106 -0.032127339 0.32800001
-0.0045931675 -0.034640051 0.32900017
0.005456836 -0.035152268 0.3283802
0.014968992 -0.035083622 0.32821304
0.024943415 -0.034862682 0.32847255
0.034984097 -0.034956034 0.32780138
0.044979066 -0.034757182 0.32761002
0.055004202 -0.034892194 0.32724661
0.064977229 -0.034850683 0.32750461
0.075072244 -0.034876242 0.32716432
0.084833026 -0.035156369 0.32567391
0.094927512 -0.035260934 0.32505354
0.10494215 -0.035169326 0.32403994
0.1153795 -0.035213806 0.32461542
0.12460101 -0.035143998 0.32297093
0.13430488 -0.034835726 0.32337451
0.14329639 -0.032219362 0.32200003
0.15898649 -0.033789683 0.32550004
0.1601053 -0.033001252 0.32300001
0.015846627 -0.029447313 0.32900003
0.025197493 -0.029124865 0.32900006
0.034551609 -0.028902074 0.32896888
0.044868067 -0.028963268 0.32900012
0.055758338 -0.028861331 0.32900012
0.064808466 -0.028752819 0.3290002
0.07535591 -0.027936252 0.3288444
0.085490741 -0.027317967 0.32841012
0.095351174 -0.026728041 0.32810733
0.10517964 -0.025200292 0.32742265
0.11512204 -0.02508075 0.32693622
0.12445363 -0.026171319 0.32606044
0.13245833 -0.028564932 0.32489279
0.10757329 -0.019457281 0.32900003
0.11545188 -0.019093134 0.32896885
0.1219058 -0.018732253 0.32900003
-0.17169167 -0.054836027 0.33069232
-0.16845559 -0.05133957 0.33133337
-0.17137842 -0.046427708 0.33063996
-0.16519901 -0.044864699 0.33031785
-0.15490076 -0.04192112 0.33025548
-0.14658105 -0.041554887 0.33009803
-0.13909987 -0.040682498 0.33000001
-0.11178298 -0.041130316 0.32999998
-0.10440644 -0.041789621 0.32999995
-0.09571974 -0.041707702 0.32999995
-0.084830992 -0.041329365 0.32999995
-0.075499803 -0.041239794 0.32999995
-0.064911403 -0.041030798 0.32999995
-0.056900445 -0.040682498 0.33000001
-0.17140526 -0.036813676 0.33671427
-0.16519703 -0.035150245 0.33567074
-0.15524453 -0.035324153 0.33230016
-0.1458901 -0.037960462 0.33083561
-0.13855253 -0.039687347 0.33000001
-0.11158395 -0.039985895 0.33000001
-0.10363445 -0.039658085 0.32999998
-0.094679661 -0.039149966 0.32999995
-0.084814273 -0.038595743 0.33002734
-0.074902557 -0.038537432 0.33019435
-0.06485679 -0.037943877 0.33000004
-0.054902337 -0.037226241 0.3300094
-0.045831565 -0.03546663 0.33015555
-0.038022444 -0.034552373 0.32999998
-0.021253461 -0.036651455 0.33007994
-0.015204092 -0.035553735 0.33005151
-0.0096009579 -0.035736602 0.32999998
-0.16086118 -0.024411408 0.33623078
-0.15790892 -0.027157746 0.33542597
0.037435967 -0.028090021 0.32999998
0.045331977 -0.027604287 0.32999995
0.055322643 -0.026991028 0.32999995
0.065676764 -0.025125405 0.33010787
0.074768297 -0.023346005 0.33053514
0.084668353 -0.022445735 0.33036157
0.094604723 -0.021758996 0.33001509
0.10070647 -0.020655101 0.33000001
0.12630671 -0.020713151 0.33000001
0.13276854 -0.02152491 0.33256519
0.077095442 -0.018203584 0.33233935
0.0850247 -0.015082917 0.33275968
0.09495905 -0.015025888 0.33219224
0.10478207 -0.014726257 0.33138034
0.11500581 -0.014130014 0.33141088
0.12441552 -0.01342523 0.33151886
0.13179219 -0.0137228 0.33157143
0.086358942 -0.0055739256 0.33655256
0.095041245 -0.0049275914 0.33581561
0.1050275 -0.0048655863 0.33530974
0.1149116 -0.0047775153 0.33632976
0.12239659 -0.0069483495 0.33514866
0.13088176 -0.0093635581 0.33100003
0.16108835 -0.007490417 0.33652383
0.088779166 0.0017749784 0.33870596
0.094820693 0.0027329973 0.33842066
0.10478669 0.0027953326 0.33833349
0.11519705 0.001702631 0.33798209
0.12032932 0.0019790542 0.33900002
-0.16113561 -0.022210244 0.3405
-0.16982707 -0.010579067 0.34800002
-0.17064317 -0.0087348921 0.34766671
-0.16950174 -0.009093116 0.34733334
0.085836649 -0.0010067323 0.34100002
0.16087629 -0.0087808231 0.34
0.088123038 0.0049170651 0.34207019
0.094209708 0.0080407886 0.34083989
0.1048219 0.0078628706 0.34077632
0.11409274 0.0068046311 0.34032258
0.1220844 0.0045866757 0.34047833
0.089658298 0.012138652 0.34342861
0.095358901 0.014345442 0.34343788
0.10332454 0.013324443 0.34272221
0.11054178 0.01068862 0.34100002
0.16224088 0.018609952 0.34828573
0.099137589 0.02180589 0.34900001
0.10085658 0.02162171 0.34900001
0.16221294 0.020274205 0.34800002
0.11905278 0.01953527 0.35124999
0.12137505 0.018578768 0.35424998
0.16262925 0.017474718 0.35185713
0.099473611 0.028260784 0.35328573
0.10089264 0.026785428 0.35139999
0.1187901 0.020864954 0.35085717
0.12164491 0.021792017 0.35375002
0.099841826 0.03061589 0.35433331
0.1016952 0.032866284 0.35225004
0.11843103 0.045861106 0.35849997
0.12027159 0.046650074 0.35874999
0.11917078 0.049090832 0.36000001
0.11771867 0.072921023 0.36649999
0.12038436 0.072700664 0.36600003
0.11886132 0.099280968 0.38300002
0.11837624 0.10170641 0.38300002
0.024051545 0.1324188 0.39699998
-0.15259364 0.18710665 0.41787103
-0.14581063 0.1874558 0.41769809
-0.13430901 0.18807435 0.4172045
-0.12583014 0.18846101 0.41689992
-0.11420084 0.18851756 0.41615158
-0.1049912 0.18863714 0.41629028
-0.094855316 0.18903473 0.41452175
-0.087114811 0.1892907 0.41400003
-0.15155448 0.19098718 0.41900006
-0.14422821 0.19169013 0.41856766
-0.13502088 0.19323127 0.41798645
-0.12547128 0.1932468 0.41753596
-0.1146565 0.1933447 0.41661796
-0.10497314 0.19330271 0.41671246
-0.094560817 0.19343735 0.41539505
-0.086421371 0.19446385 0.4161765
-0.07003513 0.19776818 0.41900003
-0.064344779 0.19659825 0.41652173
-0.055134024 0.1974488 0.41699988
-0.035899848 0.19701263 0.41691294
-0.028548812 0.19548832 0.41380006
-0.15657325 0.18893649 0.42100003
-0.15420225 0.19438252 0.42197508
-0.14668164 0.19487473 0.42003131
-0.07153216 0.19824016 0.42000002
