# .PCD v0.7 - Point Cloud Data file format
VERSION 0.7
FIELDS x y z
SIZE 4 4 4
TYPE F F F
COUNT 1 1 1
WIDTH 358
HEIGHT 1
VIEWPOINT 0 0 0 1 0 0 0
POINTS 358
DATA ascii
-0.13128215 0.026344499 0.25859997
-0.124949 0.026691273 0.25768355
-0.11518861 0.027153233 0.25804469
-0.10511452 0.027429543 0.25821134
-0.095443048 0.027823543 0.25826883
-0.085600451 0.028725555 0.25872061
-0.075340182 0.02919996 0.25899991
-0.065558203 0.029552612 0.25899994
-0.055771921 0.029643448 0.25899994
-0.047665242 0.029850828 0.25900003
-0.13079986 0.033869844 0.25620836
-0.12474146 0.034749519 0.25413811
-0.11496008 0.034858536 0.25374287
-0.10500726 0.034962863 0.25437877
-0.095014676 0.035049953 0.25488764
-0.085013539 0.035039023 0.25536019
-0.075004965 0.035230462 0.25605279
-0.065011404 0.035152234 0.25665775
-0.054932542 0.035079464 0.25704557
-0.044944618 0.035049397 0.25728506
-0.035020504 0.035381719 0.25723472
-0.024962464 0.035684813 0.25733998
-0.015119133 0.035810795 0.25751564
-0.0049544987 0.036017951 0.25762108
0.0049674674 0.036340553 0.25774413
0.014984389 0.036554888 0.25778288
0.025147233 0.036679804 0.25796285
0.034833018 0.036995381 0.25805384
0.044942047 0.037523545 0.25819758
0.053617354 0.037948258 0.25860178
-0.13049556 0.043381512 0.25650001
-0.12459033 0.043891296 0.25343993
-0.11492771 0.044316873 0.25143224
-0.10474061 0.044534992 0.25076428
-0.095011577 0.044869758 0.25127098
-0.085003182 0.044895571 0.25156161
-0.074905507 0.044927165 0.25167075
-0.064936131 0.044826206 0.25210482
-0.055073127 0.044867635 0.25260139
-0.045072965 0.044906799 0.25296697
-0.035015848 0.04488676 0.25293589
-0.0249763 0.044905145 0.25291061
-0.015010864 0.044979081 0.25319624
-0.0049107485 0.044972025 0.2534121
0.0049928343 0.045044485 0.25381619
0.014910199 0.045061447 0.25390962
0.024992401 0.045183923 0.25419927
0.035004865 0.045182291 0.25456011
0.04497797 0.045185566 0.25467607
0.054067779 0.045006867 0.25609124
-0.10269269 0.051957164 0.25554171
-0.094985619 0.05229748 0.25521153
-0.085111924 0.052113876 0.25432041
-0.074653365 0.052641641 0.25298765
-0.065090388 0.053219229 0.25326878
-0.054990429 0.053247362 0.25257471
-0.045065608 0.05350966 0.25232038
-0.035000466 0.053756606 0.25181854
-0.024894118 0.054228861 0.25145856
-0.014891716 0.054632384 0.25143245
-0.0048704213 0.054683439 0.25124508
0.0051937643 0.054695468 0.251178
0.014983205 0.054664481 0.25117433
0.024862532 0.054896589 0.25121188
0.034873281 0.054892428 0.25101349
0.044734355 0.054932807 0.25164127
0.053532157 0.054593228 0.25464892
-0.13115454 0.0077868002 0.26802865
-0.12524898 0.0075283465 0.26798838
-0.11489135 0.0077525573 0.26849356
-0.10516968 0.0079236003 0.26849318
-0.094718218 0.0079874089 0.26833341
-0.085117817 0.0081885532 0.26850763
-0.07506033 0.0085800607 0.26848555
-0.065222025 0.0086310804 0.26867935
-0.055133034 0.0089480728 0.26885518
-0.045574408 0.0093599791 0.26900002
-0.038489528 0.009822988 0.26900002
-0.13148658 0.014639081 0.26407704
-0.12491241 0.015006084 0.26370621
-0.11490228 0.015123165 0.26447111
-0.10494787 0.015210027 0.26507041
-0.095024407 0.015199143 0.2653254
-0.084987834 0.015158861 0.26513943
-0.074974999 0.015193567 0.26524344
-0.065010175 0.015145791 0.26567119
-0.055021178 0.015247103 0.26599345
-0.045035988 0.015229435 0.26655972
-0.035051998 0.015261824 0.26705211
-0.025191141 0.015736891 0.26714975
-0.015129157 0.016052071 0.26743615
-0.0049379752 0.016385391 0.26746467
0.0049786964 0.016420383 0.26746637
0.014785125 0.016616473 0.26765829
0.024942841 0.016800292 0.26758346
0.034928665 0.017185355 0.26766339
0.044680383 0.017425038 0.26808387
0.054500621 0.017559603 0.26835263
0.060598332 0.018965192 0.26900002
-0.13126215 0.022051528 0.26065522
-0.12484052 0.021779703 0.26036718
-0.11490153 0.022157174 0.26054472
-0.10491684 0.022511397 0.26096058
-0.094740875 0.023072261 0.26133344
-0.084853187 0.02379488 0.26128316
-0.07490214 0.024260344 0.261334
-0.064911455 0.024653982 0.26144418
-0.054874491 0.024769247 0.26155663
-0.044893179 0.025074352 0.26197055
-0.035007671 0.025218844 0.26216412
-0.024985278 0.025259569 0.26244
-0.014929382 0.025262995 0.26279566
-0.0047960202 0.025068892 0.26313841
0.005120934 0.025113814 0.26312488
0.01511223 0.025112534 0.26334801
0.025056778 0.025076116 0.2635619
0.035023406 0.025109662 0.26376808
0.045020144 0.024905864 0.2641755
0.054697126 0.024829851 0.26480871
0.060537402 0.023385489 0.26823813
-0.033997588 0.030619469 0.26000008
-0.025072398 0.030789338 0.26000011
-0.014395224 0.030895431 0.26009631
-0.0052453359 0.030948183 0.26020265
0.0056003686 0.031294022 0.26020437
0.015013378 0.031379178 0.26035193
0.024785094 0.03160568 0.26040164
0.035302509 0.031907819 0.26050693
0.044951435 0.032369968 0.26068643
0.05479905 0.033066712 0.26149738
0.058900181 0.042589419 0.26000002
-0.13113685 -0.01314963 0.27835289
-0.12526087 -0.013046882 0.27790606
-0.11526296 -0.012614534 0.27818507
-0.10527641 -0.011926807 0.27843088
-0.09485741 -0.011647498 0.27865297
-0.085199483 -0.011416142 0.27872929
-0.075355746 -0.011113927 0.2787576
-0.064722843 -0.010911596 0.27869096
-0.05521249 -0.011044344 0.27887502
-0.044756103 -0.01061444 0.27899998
-0.035815176 -0.010488278 0.27899992
-0.028082507 -0.010248337 0.27900001
-0.13161151 -0.0050416645 0.27438754
-0.12497409 -0.0048022461 0.27379423
-0.11495376 -0.0048628114 0.27417585
-0.10495081 -0.0048736557 0.27459016
-0.094979696 -0.0048439787 0.27492303
-0.08501026 -0.0049045905 0.27511406
-0.074993253 -0.0048758807 0.27519876
-0.064972803 -0.0048708506 0.27544555
-0.055008251 -0.0048934775 0.27583441
-0.044955585 -0.0049163178 0.27625358
-0.034956913 -0.0049272361 0.27666906
-0.025093425 -0.0048482041 0.27701077
-0.014985266 -0.0043385373 0.27726349
-0.0049401671 -0.0038928201 0.27764353
0.0051086633 -0.0035210447 0.27762812
0.015045791 -0.0032841875 0.27791184
0.025108119 -0.0031596096 0.27806982
0.035007983 -0.0026809159 0.27813283
0.04501538 -0.0026143743 0.27809739
0.054660819 -0.0020644455 0.27826872
0.061143108 -0.00057276426 0.27900001
-0.13138497 0.002926124 0.27050003
-0.12457991 0.0025238392 0.27038684
-0.11513026 0.0027074798 0.27058551
-0.10479228 0.0028532629 0.27093741
-0.095062904 0.0029561736 0.27093637
-0.084989019 0.0031455152 0.27092552
-0.075063221 0.0034869495 0.27098593
-0.064945742 0.0035514454 0.27124983
-0.054891672 0.0039115208 0.27139893
-0.044774294 0.0043884739 0.27156842
-0.034921944 0.0048503545 0.27183938
-0.024994655 0.0049969554 0.27232814
-0.01508293 0.0049403547 0.27291697
-0.0050051101 0.0049433224 0.27313775
0.0050893254 0.0049474835 0.27338791
0.014995682 0.0050085997 0.27353111
0.02502472 0.0049613193 0.27385813
0.035018481 0.0049462169 0.27411023
0.044996027 0.0049726451 0.27433133
0.054882281 0.0049772128 0.27470344
0.061024461 0.0050361566 0.27632147
-0.033161096 0.010030491 0.27000001
-0.024282543 0.010499114 0.27000016
-0.014693853 0.010833722 0.2700471
-0.0048491973 0.011155669 0.27029568
0.0050314581 0.011183825 0.27035305
0.015222927 0.01138667 0.2703923
0.025172617 0.011564622 0.27041137
0.035187911 0.011913829 0.27053347
0.045254033 0.012459817 0.27076107
0.055218045 0.012721832 0.27105749
0.061097257 0.013948177 0.2721191
-0.12203004 -0.031465389 0.28650007
-0.11483584 -0.032145787 0.28681332
-0.10521019 -0.032187309 0.28770211
-0.095252857 -0.031544652 0.28813189
-0.085289448 -0.03086656 0.28840339
-0.07564915 -0.030339213 0.28851727
-0.06639225 -0.030316914 0.289
-0.13001245 -0.020702273 0.28100002
-0.12412268 -0.024432661 0.28301859
-0.11497937 -0.025071099 0.28391925
-0.10506386 -0.025288438 0.28487247
-0.095038295 -0.024967669 0.28525004
-0.084971726 -0.024997586 0.28580463
-0.074942254 -0.024766557 0.28610587
-0.064985007 -0.024689028 0.28636798
-0.055071089 -0.024576593 0.28639656
-0.045118127 -0.024134776 0.28640568
-0.035091046 -0.023615493 0.28601405
-0.025010008 -0.023932092 0.28613088
-0.015139255 -0.023472324 0.28624448
-0.0049954411 -0.023156853 0.28661487
0.0050382111 -0.022957377 0.28688729
0.014623642 -0.022151137 0.2871322
0.024775399 -0.02166876 0.28754565
0.03450999 -0.021169124 0.28780338
0.044391546 -0.020890772 0.28842226
0.050739981 -0.020341322 0.28850001
-0.13142146 -0.016195657 0.28
-0.12468062 -0.018101564 0.28033644
-0.11470174 -0.017729191 0.28069845
-0.10486112 -0.017068716 0.28093117
-0.09523952 -0.016776832 0.2812303
-0.085024856 -0.016557107 0.28140092
-0.074937873 -0.016010089 0.28156802
-0.064990118 -0.015730856 0.28170249
-0.054947518 -0.015949467 0.2820152
-0.045095745 -0.015463999 0.28179032
-0.034949135 -0.015259599 0.28176406
-0.024993386 -0.014902301 0.28193521
-0.015002372 -0.014847836 0.28222772
-0.0048801266 -0.014870157 0.28263927
0.0050113541 -0.014862355 0.28312016
0.014889254 -0.014946752 0.28351882
0.024988119 -0.014891176 0.28428218
0.035024609 -0.015000335 0.28483102
0.045057345 -0.015011019 0.28528434
0.054414615 -0.01434258 0.28556854
0.060950555 -0.011437438 0.28568757
-0.13702321 -0.0061915698 0.28200001
-0.021385986 -0.00969401 0.28
-0.01460728 -0.0094169518 0.28000006
-0.0043634898 -0.0089059304 0.27999994
0.0053693624 -0.0085646752 0.28028068
0.015384751 -0.0082969638 0.28034061
0.024954814 -0.0082570994 0.28051051
0.03499585 -0.0077412063 0.28064632
0.044936001 -0.00765394 0.28090179
0.055126991 -0.0071072844 0.28139129
0.061667651 -0.0054922798 0.28269568
-0.099282958 -0.033914782 0.29000002
-0.073714487 -0.031173121 0.29300001
-0.066548616 -0.030780166 0.29075003
-0.05416866 -0.029731775 0.29100001
-0.045568757 -0.028810356 0.29100001
-0.032747291 -0.028535735 0.29449999
-0.027020419 -0.0293533 0.29650003
-0.0001128734 -0.026843615 0.29300001
0.013662066 -0.025038343 0.29000002
0.025678979 -0.024193278 0.29333335
0.032667678 -0.023132609 0.29300001
-0.14016774 -0.0076177311 0.29100001
-0.13968605 -0.0069793854 0.29000002
-0.12502091 -0.036312826 0.30500001
-0.11282218 -0.036536843 0.30580002
-0.10492869 -0.036135025 0.3062143
-0.096511513 -0.035075903 0.30645454
-0.086568877 -0.033836529 0.30588892
-0.074850217 -0.032471113 0.30520001
-0.065833844 -0.032148231 0.30580002
-0.050824404 -0.030618399 0.30600002
-0.047340374 -0.030662872 0.30644447
-0.041857347 -0.029796148 0.30419999
-0.035831288 -0.02928655 0.30254546
-0.022510437 -0.029700376 0.30322227
-0.014697411 -0.029268527 0.30483332
-0.0056002815 -0.028687259 0.30607146
0.0048079011 -0.028058086 0.30581257
0.015755594 -0.026152981 0.30527276
0.023925893 -0.025234083 0.30511117
-0.097305454 -0.081536047 0.31723082
-0.15059854 -0.075585604 0.31900004
-0.14469448 -0.07540708 0.31808907
-0.13497062 -0.075349294 0.31753206
-0.12507573 -0.075079016 0.31758603
-0.1152099 -0.075273283 0.31761363
-0.10499564 -0.075246431 0.31774652
-0.09589193 -0.075580068 0.31840473
0.049907181 -0.070308022 0.31600001
0.056456085 -0.072360396 0.31338876
-0.12133219 -0.069628738 0.31900001
-0.11931203 -0.069628738 0.31900001
0.038644839 -0.060970932 0.31900004
0.045977261 -0.063640296 0.31800044
0.055038948 -0.064945117 0.31661814
0.06505511 -0.064969033 0.31592029
0.075007223 -0.064987361 0.31495965
0.08496213 -0.064937055 0.31436944
0.095014952 -0.064903751 0.31385294
0.10507406 -0.065082967 0.31330335
0.11503322 -0.065059759 0.31315961
0.12495236 -0.065280892 0.3123835
0.13405068 -0.064951934 0.31243587
0.1407572 -0.060470946 0.31480002
0.03810465 -0.058958173 0.31900004
0.044993903 -0.059335578 0.3190001
0.055153228 -0.058810659 0.31900018
0.066015191 -0.058037471 0.31882218
0.075161882 -0.05734966 0.31836963
0.085253015 -0.056187358 0.31799516
0.095188223 -0.055191204 0.31730235
0.10504831 -0.054998752 0.31677774
0.11514329 -0.055185806 0.31642678
0.12502688 -0.0552104 0.31579715
0.13292021 -0.056121763 0.31517196
0.14175834 -0.058962446 0.31716666
0.098864704 -0.049427193 0.31900001
0.10591415 -0.048434425 0.31878763
0.11527848 -0.047302213 0.31855413
0.12511706 -0.046647806 0.31843337
0.13393848 -0.046733432 0.3182627
0.14026512 -0.046662383 0.31760001
-0.12604964 -0.038504545 0.31233335
-0.11005639 -0.037562504 0.31
-0.10708404 -0.037607502 0.31114286
-0.097519927 -0.036260489 0.31085712
-0.12236343 -0.085923202 0.32214293
-0.11968605 -0.086058907 0.32000002
-0.15394062 -0.072296038 0.32057676
-0.14555754 -0.07072515 0.32000005
-0.13606682 -0.070606939 0.32000002
-0.11365855 -0.070626423 0.31999999
-0.10617614 -0.07052251 0.32000002
-0.093548112 -0.071348116 0.31999996
-0.087368645 -0.071754403 0.32040375
-0.16267663 -0.06336534 0.32440919
-0.15481791 -0.064900912 0.32244378
-0.14500245 -0.065202348 0.32187426
-0.1349746 -0.065048143 0.32147607
-0.1250356 -0.065027721 0.3216325
-0.1149437 -0.065095611 0.32160521
-0.10497663 -0.065074399 0.32149965
-0.094892927 -0.065050833 0.32155916
-0.085133664 -0.065052629 0.32237768
-0.0774066 -0.062901407 0.32369727
0.036353502 -0.060390066 0.32000002
0.035282142 -0.054229297 0.32112709
0.045136526 -0.054606561 0.32100958
0.054846708 -0.054023467 0.32094526
0.064592361 -0.053530324 0.32069695
0.074855246 -0.052351065 0.32038078
0.083885543 -0.051390659 0.32007131
0.09313269 -0.050557844 0.32000005
