# .PCD v0.7 - Point Cloud Data file format
VERSION 0.7
FIELDS x y z
SIZE 4 4 4
TYPE F F F
COUNT 1 1 1
WIDTH 142
HEIGHT 1
VIEWPOINT 0 0 0 1 0 0 0
POINTS 142
DATA ascii
-0.0219891 -0.021005642 0.046024878
-0.018393409 -0.020840121 0.045519654
-0.02286456 -0.021868793 0.054191019
-0.018428683 -0.021598615 0.053748615
-0.023275033 -0.022213716 0.060952738
-0.018265631 -0.022013713 0.060099959
-0.02362521 -0.022885893 0.076046139
-0.018473834 -0.022596315 0.076570176
-0.022288855 0.060455561 0.25728568
-0.015696079 0.061058551 0.25747824
-0.0049686185 0.061006736 0.25552633
0.0048401658 0.06083421 0.25483882
0.015526666 0.061288379 0.25574508
0.024813965 0.061855972 0.25590155
0.035692401 0.062021393 0.25469899
0.045218758 0.062415335 0.25451234
0.052560717 0.062411755 0.2568236
-0.12746145 0.04963908 0.2607857
-0.12427013 0.052497212 0.26426959
-0.11756464 0.053554699 0.26675007
-0.10807513 0.055884205 0.26850003
-0.092966773 0.055507027 0.2604211
-0.085021153 0.057014368 0.26313096
-0.074495859 0.058260787 0.26243752
-0.064074278 0.058777094 0.26189804
-0.054983459 0.059144732 0.26224139
-0.044852812 0.059215903 0.26061544
-0.036610752 0.05962256 0.26008335
-0.088686466 0.060530983 0.26900002
-0.072835661 0.060868517 0.26633334
-0.064990826 0.061330561 0.26729035
-0.055311728 0.061428782 0.26634547
-0.045146897 0.061798234 0.26547632
-0.034731142 0.062293261 0.26503828
-0.025470294 0.063092776 0.26514292
-0.014581776 0.064244308 0.26597738
-0.0047192043 0.064923108 0.26587504
0.005124284 0.064807773 0.26468924
0.014949364 0.065397806 0.26462191
0.025328077 0.06620466 0.26478568
0.034742977 0.066806793 0.26432255
0.044705782 0.067770451 0.26437137
0.051071785 0.068133466 0.26481819
0.045607388 0.070184238 0.26900002
0.051569697 0.070184238 0.26900002
-0.13114586 0.05722069 0.27705884
-0.12610528 0.058339551 0.27697298
-0.11594989 0.057232827 0.27362365
-0.10866599 0.057847232 0.27239999
-0.1271916 0.060659368 0.27872223
-0.1170958 0.060317125 0.27850002
-0.091108479 0.060785808 0.27320001
-0.071160085 0.064101808 0.27409092
-0.065002769 0.064477131 0.27351522
-0.054569278 0.065674454 0.27402249
-0.045288011 0.066713177 0.27559748
-0.035072692 0.066890605 0.27455735
-0.024855813 0.067767136 0.27483082
-0.015284086 0.067658015 0.27311864
-0.0050907624 0.068336427 0.27290198
0.0050500389 0.068258457 0.27149999
0.014640243 0.069001056 0.27216664
0.02436767 0.069310263 0.2706956
0.035288613 0.069861054 0.2705
-0.014521489 0.070347369 0.27864292
-0.0032210541 0.070897341 0.27779999
0.0051486632 0.07074333 0.27673528
0.015499393 0.071553893 0.27716288
0.025877014 0.071354471 0.27437499
0.035153706 0.072209865 0.27483109
0.044510365 0.072665505 0.27415395
0.050958421 0.071778752 0.27308336
-0.12362119 0.062898301 0.28547993
-0.11868785 0.063389853 0.2864643
-0.081702374 0.066344723 0.28395998
-0.073341444 0.067769103 0.28320694
-0.06541384 0.068771608 0.28247911
-0.053381752 0.069266632 0.2807
-0.044717126 0.069305427 0.280375
-0.035925444 0.069614276 0.28042856
-0.070745945 0.070393607 0.28600001
-0.062393036 0.070563078 0.28528574
-0.056567147 0.071066298 0.28589478
-0.044680059 0.071267724 0.28487879
-0.034396958 0.071695887 0.28445005
-0.024650509 0.072110012 0.2834909
-0.01510829 0.072939351 0.28437257
-0.0048334203 0.073713936 0.28411317
0.0054065632 0.074106529 0.28348222
0.014278212 0.074996985 0.28466669
0.026036263 0.075628407 0.28385714
0.03500694 0.076689318 0.28243241
0.041728538 0.076800101 0.282381
0.031611644 0.08028286 0.289
-0.12337451 0.06587562 0.29003027
-0.11785972 0.066471301 0.29228899
-0.079693578 0.068623379 0.29000002
-0.064460769 0.073107392 0.29450002
-0.035617471 0.073826805 0.29000002
-0.022997407 0.075827532 0.29300001
-0.0063408716 0.07759057 0.29500002
0.0054536345 0.077683032 0.29300001
0.015559201 0.079370499 0.29700002
-0.082305782 0.074750081 0.30900002
-0.063378803 0.076158643 0.30333331
-0.057934951 0.076625444 0.30300003
-0.040597543 0.076881707 0.30200002
-0.034896426 0.077094443 0.30144447
-0.023338815 0.078765079 0.30328575
-0.015766928 0.078924663 0.30250001
0.0043317629 0.07980407 0.30100003
-0.028166892 0.080620557 0.30900002
-0.00075620756 0.080245949 0.30266666
0.0017961573 0.080069207 0.30200002
0.017383909 0.082641736 0.30680001
-0.084187157 0.075886503 0.31260002
-0.029239628 0.080881462 0.31
-0.091002375 0.087237887 0.33813798
-0.08500009 0.086910084 0.33725005
-0.075564735 0.087755248 0.33699992
-0.065535083 0.088386275 0.33699992
-0.055374682 0.088654704 0.33699992
-0.045248661 0.088831387 0.33699992
-0.03599098 0.08904139 0.33695826
-0.028585089 0.089348756 0.33700001
-0.017151935 0.0897929 0.336
-0.090030268 0.090327367 0.33800003
-0.084862404 0.090527706 0.33741662
-0.074113518 0.090633802 0.33699992
-0.064352699 0.090936981 0.33699992
-0.055127535 0.09201245 0.33699992
-0.045269631 0.092457801 0.33700013
-0.034969293 0.09249837 0.33700028
-0.024727441 0.092847817 0.33700034
-0.014607558 0.093633793 0.3370004
-0.0048281387 0.094195023 0.33677986
0.0050664074 0.094711125 0.33648908
0.014985533 0.095680326 0.33680689
0.025092591 0.095704295 0.33666411
0.032424096 0.095947117 0.33722731
-0.093036644 0.085865289 0.34076926
0.03575474 0.096962422 0.34
