# .PCD v0.7 - Point Cloud Data file format
VERSION 0.7
FIELDS x y z
SIZE 4 4 4
TYPE F F F
COUNT 1 1 1
WIDTH 62
HEIGHT 1
VIEWPOINT 0 0 0 1 0 0 0
POINTS 62
DATA ascii
0.16429561 -0.083737485 0.27429089
-0.090648681 0.00107218 0.31766668
-0.076031268 0.0017381784 0.31683335
-0.066408552 0.0025172506 0.31666669
-0.054324545 0.0035456219 0.317
-0.044948064 0.0040870733 0.31750003
-0.035858512 0.0049867206 0.31685716
-0.024474593 0.0060685654 0.31600001
-0.016097905 0.0066176937 0.31670001
-0.0064910231 0.0077195871 0.31528571
0.0058817361 0.0084041283 0.31600001
0.023967752 0.0097690495 0.317
0.029895617 0.010405284 0.31600001
0.031229721 0.010405284 0.31600001
0.064377956 0.013032121 0.31500003
0.17457174 0.079163715 0.31860715
0.18180902 0.097000487 0.31847626
0.18105435 0.10122739 0.31800005
-0.093633406 0.00040582375 0.32100001
-0.0042451508 0.0065920893 0.32533336
0.17463268 0.076055527 0.32162946
0.18047759 0.074847355 0.32500002
0.17321606 0.083743766 0.32371113
0.18574722 0.086572595 0.32560164
0.17702986 0.094952054 0.32025567
0.18323092 0.092049859 0.32128409
0.18234941 0.11324963 0.32380953
0.17332755 0.079830185 0.33000001
0.18625632 0.083969191 0.33042857
0.18712035 0.11410315 0.33000001
0.18428056 0.13812627 0.33323693
0.1708739 0.14829421 0.33200002
0.18271777 0.14123958 0.33272219
-0.063000605 0.12150765 0.34900001
-0.054919068 0.12219972 0.34900001
-0.046528447 0.12343445 0.34900001
-0.020598687 0.12576422 0.34900001
-0.015545017 0.12649153 0.34900025
-0.00346712 0.1270332 0.34898436
0.00477301 0.12770239 0.34900025
0.014750495 0.12854551 0.34900001
0.025002647 0.12858926 0.34862158
0.035034291 0.12857376 0.34860605
0.045389883 0.12812357 0.34898326
-0.00013444647 0.13010265 0.34900001
0.0032544318 0.13010265 0.34900001
0.01496816 0.13047101 0.34900001
0.025024291 0.1303605 0.34900001
0.035379443 0.13066602 0.34900001
0.044592209 0.13105218 0.34900001
0.18648334 0.14061707 0.34100002
-0.077562876 0.1197342 0.35100001
-0.073925249 0.12142401 0.35053128
-0.065311059 0.12298734 0.35000011
-0.05491643 0.12447795 0.35000011
-0.042969018 0.12512773 0.35000014
-0.034644052 0.12551917 0.35000026
-0.025629304 0.12642707 0.35000026
-0.011540421 0.12821279 0.34999996
-0.0082364148 0.12815702 0.35000005
0.0065145805 0.12973662 0.35000002
0.0068839923 0.13072169 0.34999999
