# .PCD v0.7 - Point Cloud Data file format
VERSION 0.7
FIELDS x y z
SIZE 4 4 4
TYPE F F F
COUNT 1 1 1
WIDTH 79
HEIGHT 1
VIEWPOINT 0 0 0 1 0 0 0
POINTS 79
DATA ascii
0.12803486 -0.12065962 0.32123077
0.13065445 -0.12020817 0.32100001
0.11784548 -0.11333814 0.32884634
0.12501661 -0.11538477 0.32526192
0.13173863 -0.11820923 0.32100004
0.12741615 0.15054309 0.32550001
0.1160321 -0.11151285 0.33113512
0.12182522 -0.11094673 0.32999998
0.11528751 -0.10586944 0.33433002
0.12241588 -0.10719059 0.33180255
0.12463912 0.15293023 0.33445278
0.11721072 -0.10182943 0.34247372
0.12116276 -0.10005016 0.34
0.11865993 -0.098099396 0.34380773
0.12221731 -0.098016299 0.34077138
0.12507249 0.12592135 0.34333748
0.11627395 0.1548114 0.3454003
0.1227774 0.15477805 0.342879
0.11527316 0.16093637 0.34577775
0.11949366 -0.093366057 0.352
0.12180146 -0.094475061 0.3532564
0.11552872 0.12381327 0.35476813
0.12609279 0.1215597 0.35085082
0.11993071 -0.097576208 0.36000001
0.12145057 -0.09871611 0.36000001
0.11506494 0.11521938 0.3652294
0.12255424 0.11326832 0.36328262
0.11310969 0.12361 0.36101872
0.079640992 0.36907727 0.78900003
0.0831457 0.36754283 0.78750002
0.078782998 0.37312227 0.78875005
0.083402082 0.37244946 0.78584629
0.075779647 0.36590031 0.79651284
0.084091298 0.34726888 0.81604028
0.074022859 0.33648652 0.8272382
0.082766525 0.33776143 0.82862508
0.075382933 0.34330118 0.82345152
0.084193259 0.34249678 0.8247273
0.073451146 0.31806147 0.83823079
0.082916886 0.31985253 0.83900005
0.074683659 0.32499048 0.83572966
0.082785115 0.32552928 0.83766663
0.076287106 0.33227843 0.83187503
0.082820915 0.33332244 0.83211112
0.075760379 0.31379679 0.84312493
0.082955971 0.31459868 0.84371442
0.075804956 0.28931397 0.85874999
0.075080857 0.29441905 0.85470599
0.084181003 0.29700723 0.85820007
0.077123694 0.26830673 0.86849999
0.08555305 0.2674123 0.86736369
0.075404681 0.27515659 0.86629033
0.084779873 0.27526918 0.86438262
0.074999347 0.2846542 0.86245954
0.085096709 0.28531101 0.86246169
0.086231411 0.29231057 0.86071432
0.079448 0.25902614 0.87900007
0.085027918 0.25806496 0.87623078
0.084440552 0.26261932 0.87214994
0.083395027 0.25486821 0.88435715
0.084061407 0.24520613 0.8959474
0.081890225 0.25230867 0.89300001
0.069013804 0.20832264 0.93900007
0.067880176 0.21603763 0.9385556
0.065647654 0.22570701 0.93600005
0.065815829 0.23456371 0.9336316
0.064484783 0.24455182 0.93085718
0.075797178 0.16628264 0.94453341
0.068623044 0.17516798 0.94730008
0.075484581 0.17478693 0.9428519
0.068586722 0.18507181 0.94680005
0.07467062 0.18471855 0.94191313
0.06856446 0.19200467 0.94650006
0.072811887 0.19129023 0.94200003
0.069087304 0.20457597 0.94000006
0.067103036 0.21251304 0.94000006
0.06541197 0.17594579 0.9515
0.065950073 0.18809636 0.95200002
0.065393545 0.19110936 0.95366669
