# .PCD v0.7 - Point Cloud Data file format
VERSION 0.7
FIELDS x y z
SIZE 4 4 4
TYPE F F F
COUNT 1 1 1
WIDTH 76
HEIGHT 1
VIEWPOINT 0 0 0 1 0 0 0
POINTS 76
DATA ascii
0.084813416 -0.022511749 0.33191887
0.093968399 -0.023680413 0.33146617
0.07498505 -0.017044172 0.33747777
0.085105501 -0.016227059 0.33700716
0.092187375 -0.017594192 0.33573812
0.054963987 -0.013041075 0.34135148
0.064845331 -0.012739073 0.34098095
0.074975297 -0.012183965 0.34072924
0.082797147 -0.01169135 0.34044737
0.039557755 -0.0093954653 0.34500003
0.043003026 -0.0095355166 0.34500006
0.066262171 -0.0096320948 0.34246153
0.07442937 -0.0094034476 0.34214288
0.081470557 -0.0093803015 0.34180003
0.16779733 -0.0055049658 0.35318559
0.17365985 -0.0051782178 0.35181808
0.16932613 0.0011382697 0.35709092
0.24083595 0.023919169 0.42600003
0.27762538 0.035370611 0.44424
0.28224176 0.03435022 0.44464716
0.27684262 0.038102739 0.45200005
0.28034243 0.039214026 0.45200002
0.27746755 0.042747416 0.45524007
0.28080836 0.051932748 0.45900002
0.27777892 0.045274556 0.46317026
0.28151765 0.047857393 0.46175003
0.27922928 0.050321683 0.46200001
0.2823849 0.051780641 0.46390912
0.28742072 0.056406204 0.47472727
0.29020387 0.059382584 0.47600001
0.28909764 0.061713658 0.47584617
0.29224169 0.065316066 0.47682357
0.28868973 0.054533258 0.48300001
0.29178873 0.057247639 0.48775005
0.2891908 0.063560091 0.48100004
0.29293263 0.066516526 0.48234612
0.29567981 0.071982436 0.48377785
0.29476577 0.066052221 0.49200001
-0.026255589 0.07333006 0.49099994
0.086905785 0.088635713 0.5267778
0.091530882 0.088113971 0.52400005
0.090929866 0.090909645 0.52140003
0.089299031 0.090173252 0.53000003
0.059836611 0.12923877 0.56900001
0.064295828 0.12585735 0.56369573
0.074872844 0.12342303 0.56400001
0.065446794 0.12552708 0.57180005
0.07591828 0.1232867 0.57514292
0.080954097 0.1218819 0.57683331
0.058092169 0.13508475 0.5750801
0.049170274 0.13904735 0.58500004
0.053852666 0.13781101 0.58160001
0.052051626 0.14325821 0.58182603
0.044552866 0.14560759 0.59260005
-0.015156223 0.28561458 0.81133336
0.2580393 0.27445191 0.83783334
0.262885 0.27618086 0.83833331
0.26518846 0.28267246 0.83688241
0.27282903 0.28563181 0.83827269
0.27596304 0.29151547 0.83900005
0.26689157 0.27401975 0.84094119
0.27482986 0.27496758 0.84403336
0.28383276 0.27579343 0.84759098
0.29179746 0.27886045 0.84900004
0.27638382 0.28309873 0.84162509
0.2849606 0.28500965 0.84449995
0.29439211 0.28475922 0.84683341
0.3004041 0.28927237 0.84800005
0.2777046 0.29150593 0.84025002
0.2849116 0.29400843 0.84276211
0.29470563 0.29444072 0.84503567
0.30076563 0.29501218 0.84650004
0.29416203 0.27660415 0.85094446
0.30111259 0.27918893 0.85000002
0.29931831 0.28098321 0.85000002
0.30231923 0.2857492 0.85150003
