# .PCD v0.7 - Point Cloud Data file format
VERSION 0.7
FIELDS x y z
SIZE 4 4 4
TYPE F F F
COUNT 1 1 1
WIDTH 371
HEIGHT 1
VIEWPOINT 0 0 0 1 0 0 0
POINTS 371
DATA ascii
-0.11355162 0.049074471 0.24899992
-0.10676255 0.049151767 0.24899992
-0.12055922 0.054541465 0.24548277
-0.11426584 0.055597238 0.24443395
-0.1049379 0.055026487 0.24524432
-0.095147327 0.055308897 0.24638157
-0.085027285 0.055593695 0.24676016
-0.075106241 0.056373306 0.24705856
-0.065209888 0.057285659 0.24750842
-0.054857604 0.057368379 0.24791326
-0.04494065 0.057381589 0.24801473
-0.035356637 0.057684693 0.24795668
-0.025140982 0.058204249 0.24802017
-0.015338197 0.058787614 0.24833898
-0.0047484757 0.058843743 0.24848647
0.0045977863 0.05928579 0.24857129
0.014807668 0.059238214 0.24873239
0.025456946 0.059219517 0.24893531
0.034854867 0.059125431 0.24886416
0.044731975 0.059372 0.24899995
0.052715074 0.059488572 0.24900004
-0.12492655 0.064897142 0.24719237
-0.11384967 0.063016482 0.24206372
-0.10493817 0.063641518 0.24132581
-0.094762936 0.064364031 0.24168894
-0.084983334 0.064617537 0.24190716
-0.075085998 0.06476669 0.24234058
-0.064940132 0.064779155 0.24271183
-0.055015743 0.064681269 0.2431328
-0.045038532 0.064797066 0.24339394
-0.035026941 0.064875469 0.24369068
-0.024984615 0.065001637 0.24402548
-0.015011834 0.06497141 0.24429967
-0.0049618031 0.065095045 0.2445039
0.0050653177 0.065158814 0.24491866
0.015123702 0.065141805 0.24530938
0.024950804 0.065101139 0.24541771
0.034980163 0.065252751 0.24546011
0.044934791 0.064955056 0.24546723
0.053016227 0.064558797 0.24624284
-0.09093827 0.070461825 0.242
-0.085147806 0.070782915 0.24169998
-0.074395582 0.071652725 0.24156789
-0.064985387 0.072015226 0.24133748
-0.054879863 0.072698928 0.24128197
-0.044766903 0.073618382 0.24145842
-0.034853578 0.074118964 0.24146627
-0.024907617 0.074512273 0.24139433
-0.014999618 0.074526317 0.24147192
-0.0048948796 0.074802324 0.24101198
0.0050517605 0.07465741 0.24089988
0.01483054 0.074606024 0.24057703
0.025031539 0.074665308 0.24034633
0.03506355 0.074754365 0.240328
0.044370987 0.074054867 0.24109386
0.051490013 0.071876876 0.24351169
-0.0044655022 0.080516718 0.24233338
0.0048139249 0.081067525 0.24296434
0.014934092 0.080807418 0.24136668
0.024633463 0.080489308 0.24102509
0.036779415 0.080781661 0.24092865
0.041421805 0.080655843 0.24036364
-0.13026322 0.035454072 0.25800002
-0.12441983 0.035948634 0.25679028
-0.11538909 0.036307648 0.25690329
-0.10511836 0.03706497 0.25722221
-0.095180549 0.037452776 0.25780186
-0.085180148 0.037711587 0.25800556
-0.075578451 0.038432751 0.25807816
-0.065455817 0.03916711 0.25899991
-0.055866178 0.039262373 0.25899991
-0.044342808 0.039544776 0.25899994
-0.035214718 0.03959256 0.25899997
-0.025796063 0.039691962 0.25900003
-0.12299562 0.043810714 0.25204128
-0.11483009 0.043840673 0.25241429
-0.10475341 0.044591196 0.25253832
-0.09503828 0.045141678 0.25284794
-0.085157029 0.045221508 0.25356457
-0.074982285 0.045096312 0.25422093
-0.06499134 0.044984668 0.25515229
-0.054978527 0.045150645 0.2557126
-0.045009583 0.045218274 0.25618023
-0.034986813 0.045220695 0.25613099
-0.02498739 0.045029633 0.25648022
-0.015029506 0.045043003 0.25673184
-0.0050922292 0.04536768 0.25682569
0.0050541996 0.045600649 0.25694734
0.014893767 0.046019226 0.25703239
0.024892833 0.046285894 0.25724319
0.034886893 0.04678382 0.2572692
0.044992995 0.046871554 0.2573677
0.053654067 0.047260541 0.25706944
-0.12124264 0.050554428 0.25014287
-0.119258 0.050661612 0.25
-0.094450243 0.050560463 0.25
-0.084155984 0.050725497 0.25036174
-0.074597776 0.051517162 0.25070235
-0.064756922 0.052318193 0.25074977
-0.055068139 0.052488837 0.25089571
-0.045029141 0.05256626 0.2512407
-0.034695886 0.053029206 0.25154775
-0.02490502 0.053301379 0.2517004
-0.014829198 0.053759586 0.25170982
-0.0049068802 0.053834762 0.25195104
0.0051777917 0.054347876 0.25199044
0.014945998 0.054306507 0.25233588
0.024990486 0.054396048 0.25241837
0.035084486 0.05414905 0.25242612
0.04497261 0.054485653 0.25225094
0.053722024 0.054533064 0.25260222
-0.12455601 0.017975206 0.26845986
-0.11565657 0.01841706 0.26859066
-0.10525113 0.019338338 0.26900002
-0.095707029 0.019517539 0.26900002
-0.085620143 0.019646596 0.26900002
-0.077897534 0.019646598 0.26900002
-0.13071601 0.024408782 0.26575002
-0.12460028 0.02511223 0.26406589
-0.1149404 0.024891945 0.26464036
-0.10494682 0.024927497 0.26506335
-0.095000461 0.025011422 0.26568374
-0.085025698 0.025102077 0.26632121
-0.075024992 0.02514104 0.26658005
-0.065082483 0.025215589 0.26664498
-0.055042382 0.025747677 0.2667779
-0.045097318 0.026040373 0.26703528
-0.035116442 0.026329249 0.26719669
-0.025208391 0.026800068 0.26728842
-0.015197634 0.026949013 0.26772162
-0.0049102884 0.027203146 0.26797247
0.0049876962 0.027486941 0.26797393
0.014888541 0.027489511 0.26799974
0.025074339 0.027492832 0.268031
0.034894537 0.027810164 0.26813847
0.044886254 0.028004613 0.2682282
0.053672783 0.028558942 0.26845321
-0.13017534 0.033259127 0.26000002
-0.12496768 0.031067453 0.26021165
-0.11447159 0.031520728 0.26077184
-0.10497641 0.032074507 0.26074678
-0.09494736 0.032419644 0.260932
-0.084887795 0.032670341 0.26132122
-0.074701555 0.033609815 0.26157525
-0.064910427 0.034371957 0.26172903
-0.054843884 0.034569539 0.26191881
-0.045021079 0.034806855 0.26223919
-0.034979451 0.034857936 0.26227537
-0.024912626 0.034928646 0.26231742
-0.014919567 0.035007115 0.26267427
-0.0048491783 0.035039451 0.26302522
0.0051354561 0.035058215 0.26307583
0.015049504 0.035091106 0.26337674
0.025009029 0.035095785 0.26362395
0.034969006 0.035092197 0.26407099
0.044976722 0.034942325 0.26448929
0.054151405 0.035031106 0.2651875
-0.0033245981 0.040599879 0.26000008
0.0051138229 0.040668484 0.26000011
0.015406908 0.04104523 0.26000017
0.025286132 0.041402638 0.26003721
0.035199445 0.041847844 0.26049152
0.045001641 0.041756429 0.26068139
0.053817172 0.042438854 0.26094517
-0.12332848 -0.00056341587 0.27900001
-0.1232535 0.0056530135 0.27656785
-0.11452368 0.0057924334 0.27657351
-0.10506495 0.0054508662 0.27702627
-0.095012829 0.0058661508 0.27709532
-0.085078634 0.0062990249 0.27691671
-0.075225607 0.0064329607 0.27724904
-0.065002643 0.0067912112 0.27742341
-0.055174518 0.0069531566 0.27777538
-0.045247454 0.0073739123 0.27786535
-0.035059083 0.0078010657 0.2782197
-0.025130386 0.0084216436 0.27854723
-0.015051872 0.0087785032 0.2786164
-0.0050346283 0.009235871 0.27893487
0.0050127618 0.0092109833 0.27900007
0.015205167 0.009481417 0.27899998
0.024401816 0.0095720235 0.27899992
0.034620143 0.009532189 0.27899992
0.044947043 0.0097758919 0.27900001
-0.13030455 0.015898436 0.271
-0.12509799 0.013521833 0.27187309
-0.11474764 0.013728938 0.2722041
-0.10495574 0.014439657 0.27209532
-0.095027834 0.014709939 0.27209911
-0.084970593 0.014744246 0.2719326
-0.074957751 0.014885122 0.27220708
-0.064993657 0.015023481 0.27249891
-0.054976333 0.015018374 0.27300662
-0.044931162 0.015084825 0.27350208
-0.035003141 0.015100054 0.27401975
-0.025068296 0.015139575 0.27449277
-0.015046994 0.015070784 0.27496207
-0.0049168658 0.015215876 0.27521554
0.0051295417 0.015162813 0.27556229
0.015021479 0.015164656 0.27563134
0.025006481 0.015231349 0.27573675
0.0350473 0.015199062 0.27601969
0.045011949 0.01514932 0.27615705
0.054779973 0.015156619 0.27678248
0.060576107 0.017939366 0.27775005
-0.063420236 0.020289583 0.27000001
-0.054775342 0.020640327 0.27000013
-0.044544023 0.020962493 0.27008495
-0.034711942 0.021251079 0.27036124
-0.02481902 0.021711221 0.27048582
-0.014823977 0.022149164 0.27074206
-0.0049636662 0.022355309 0.27090269
0.00504321 0.022645637 0.27096084
0.015057345 0.022651976 0.27103698
0.02509171 0.022669526 0.27125487
0.035153832 0.023005057 0.27119875
0.045098055 0.02314898 0.27143604
0.055109236 0.023736821 0.27176911
0.060638703 0.024212684 0.27380002
-0.121973 -0.0032883936 0.28129342
-0.11490961 -0.0042966488 0.28242391
-0.10506636 -0.0040892726 0.28271291
-0.094922043 -0.004215945 0.28300437
-0.085038453 -0.0038718127 0.28341484
-0.075113855 -0.0036927252 0.28343138
-0.065110773 -0.0032043844 0.28330812
-0.055063222 -0.0026477838 0.28326359
-0.045279115 -0.0023174034 0.28351912
-0.035096984 -0.0020045044 0.28396484
-0.025149399 -0.0016361411 0.28421524
-0.015494874 -0.00090982235 0.28409627
-0.0051295524 -0.00089954457 0.28442317
0.0043850001 -0.00048629462 0.28477776
0.014907281 -0.00024085442 0.28447059
0.020345069 -0.00024130267 0.28500003
-0.12383619 0.0010107217 0.28
-0.11573589 0.00075928727 0.28000003
-0.10423273 0.00055100903 0.28000006
-0.095136769 0.00089685043 0.28004077
-0.085112549 0.001387272 0.2804001
-0.074658528 0.0015156528 0.28039768
-0.065002561 0.00183046 0.28054383
-0.054796189 0.0020232908 0.28067595
-0.044796549 0.0024795397 0.28094846
-0.034968778 0.0028517656 0.28114554
-0.024922229 0.0034676057 0.28139481
-0.01488876 0.0038313374 0.28164771
-0.0048271748 0.0043082437 0.2819629
0.0051037185 0.0043133385 0.28216457
0.014959874 0.0044923211 0.28217837
0.02496757 0.0047886898 0.28214124
0.034877099 0.0052853185 0.28190476
0.044656262 0.0064185006 0.2815004
0.052830555 0.0081936419 0.28059164
-0.1088395 -0.0088462885 0.29100001
-0.072740197 -0.0071382262 0.29660004
-0.063008644 -0.0064769965 0.29500002
-0.045522947 -0.0046361694 0.29675001
-0.030834701 -0.0033861857 0.29700002
-0.023685703 -0.0029654081 0.29700002
-0.014632014 -0.0021466552 0.29900002
0.003967159 -0.0011756186 0.29400003
0.021608157 -0.00024892276 0.294
0.025047421 0.00037674603 0.29800001
0.036126323 0.0016238848 0.296
-0.09375912 -0.0091426857 0.30075002
-0.084812149 -0.0086236978 0.3026
-0.060360022 -0.0059931888 0.30200002
-0.056200281 -0.0061064437 0.30362499
-0.04360196 -0.0046986612 0.30075002
-0.022989934 -0.003431791 0.30100003
-0.015237789 -0.0023697137 0.30066669
-0.0056032394 -0.0024590224 0.30357143
0.0014774076 -0.0015306945 0.30200002
0.015970437 -0.0012277846 0.30533335
0.031018075 0.00038053878 0.30100003
-0.15320529 -0.055217318 0.31862512
-0.1447442 -0.055117529 0.3179625
-0.1350386 -0.05493151 0.31767875
-0.1256558 -0.054585196 0.31785643
-0.11481488 -0.054844171 0.31752914
-0.10501209 -0.054911029 0.31763294
-0.094942987 -0.05489457 0.31759313
-0.084904194 -0.054953132 0.3178449
-0.074715227 -0.054406323 0.31825292
-0.067197487 -0.052567892 0.31892428
-0.14126439 -0.049023155 0.31900001
-0.13537273 -0.04816084 0.31900018
-0.12473067 -0.048196174 0.31900018
-0.1162052 -0.048372235 0.31895256
-0.10542994 -0.048857417 0.31900018
-0.095202446 -0.048489295 0.31900018
-0.084398486 -0.048665989 0.31900018
-0.075036958 -0.048136529 0.31900018
-0.066657074 -0.048566774 0.31900015
0.0096109696 -0.04054568 0.31800002
0.016615041 -0.042965472 0.31671032
0.025362518 -0.045014814 0.31617755
0.035082959 -0.045222703 0.31576878
-0.00062792818 -0.036464531 0.31900001
0.0063912766 -0.036122743 0.31884447
0.015027005 -0.036240026 0.31834948
0.024915732 -0.035982247 0.31822833
0.034946844 -0.035558652 0.31819263
0.044915121 -0.035672776 0.31818274
0.054958526 -0.035192743 0.31821382
0.065011352 -0.035181187 0.3181026
0.074984811 -0.035153106 0.3172006
0.085061379 -0.035003427 0.31650943
0.095077083 -0.034876909 0.31583059
0.1046051 -0.035087291 0.3150976
0.11361661 -0.03620816 0.31492051
0.12003555 -0.034168579 0.31800002
0.055992525 -0.029618444 0.31900012
0.065868832 -0.029209971 0.31900018
0.075562686 -0.027591368 0.31877497
0.085258834 -0.026780995 0.31853625
0.095084049 -0.02524188 0.31828547
0.10443063 -0.025420681 0.31727886
0.11437865 -0.02821891 0.31789991
0.097181246 -0.019798251 0.31900001
0.10054816 -0.019798251 0.31900001
-0.16090018 -0.06053286 0.32660002
-0.12532847 -0.061584853 0.32200003
-0.074611418 -0.062759228 0.32166669
-0.16401677 -0.057367805 0.32373914
-0.15434313 -0.054391317 0.32035705
-0.14665392 -0.050517436 0.31999999
-0.12036154 -0.056337092 0.32000002
-0.062831812 -0.051383454 0.32000002
-0.15266222 -0.044217434 0.32222247
-0.14492404 -0.044489603 0.32093519
-0.13486537 -0.04341935 0.32033712
-0.12513655 -0.043352716 0.32043469
-0.11471216 -0.043702528 0.32043594
-0.10491419 -0.044061311 0.32044828
-0.09495116 -0.0435699 0.32039085
-0.085258357 -0.04388462 0.32038516
-0.074969664 -0.043335434 0.32032183
-0.064686358 -0.044166028 0.32037526
-0.05776237 -0.04335827 0.32070109
-0.10498285 -0.034991942 0.32255691
-0.094973087 -0.034945164 0.32241338
-0.085026592 -0.035056811 0.32234401
-0.07498794 -0.0349168 0.32222399
-0.065003552 -0.034914851 0.32218418
-0.055144917 -0.034862079 0.3217237
-0.045298971 -0.03303653 0.32174966
-0.035023008 -0.03247723 0.32141572
-0.02472345 -0.033074424 0.32087982
-0.015103064 -0.033250097 0.32094786
-0.0049106348 -0.033264514 0.32040474
0.0039488059 -0.031944972 0.32009572
0.014737634 -0.031343739 0.3199999
0.024432989 -0.031125208 0.31999996
0.03422036 -0.030810462 0.32000005
0.044797204 -0.030913889 0.32000005
-0.0048870449 -0.024752738 0.32222641
0.0050445753 -0.024918498 0.32179347
0.01480845 -0.025038656 0.32155383
0.024891574 -0.025251888 0.32113051
0.035111196 -0.025336441 0.32099497
0.045078788 -0.025412066 0.32084751
0.054913569 -0.024789296 0.32076693
0.064842843 -0.024304682 0.32055572
0.074289009 -0.022907849 0.32021028
0.084415272 -0.021972999 0.32007983
0.091181256 -0.020760978 0.32000002
0.1032276 -0.020535812 0.32000002
0.085064113 -0.015207116 0.32165149
0.094907589 -0.015047249 0.32097596
0.10218265 -0.015682468 0.32087049
