# .PCD v0.7 - Point Cloud Data file format
VERSION 0.7
FIELDS x y z
SIZE 4 4 4
TYPE F F F
COUNT 1 1 1
WIDTH 206
HEIGHT 1
VIEWPOINT 0 0 0 1 0 0 0
POINTS 206
DATA ascii
-0.14109889 -0.11210705 0.30471426
-0.13547477 -0.11245894 0.30328697
-0.12888914 -0.11084732 0.30400002
-0.14383146 -0.10322395 0.30616328
-0.13482571 -0.10496074 0.30476674
-0.12588513 -0.10409737 0.30494523
-0.1185273 -0.10114727 0.30600005
0.094874606 -0.10001081 0.30100003
-0.14259471 -0.094920285 0.30785719
-0.13515311 -0.095107019 0.30704871
-0.12498986 -0.095145673 0.30668604
-0.11573246 -0.094588727 0.30718544
-0.10910916 -0.092028625 0.3081305
0.07944569 -0.090455078 0.30233335
0.085920461 -0.092630476 0.30126092
0.093333229 -0.094770811 0.30123568
-0.1431583 -0.08822339 0.30900002
-0.13448702 -0.087812133 0.30875209
-0.12506662 -0.088089116 0.30858925
-0.11494723 -0.087705456 0.30868432
-0.10743181 -0.087748274 0.30891934
0.067847438 -0.081509747 0.3048445
0.0757493 -0.083896399 0.30338186
0.084994726 -0.085047618 0.30257505
0.093331628 -0.084792979 0.30294245
0.057040893 -0.072572708 0.30764359
0.065154463 -0.074647658 0.30635259
0.075029269 -0.075048186 0.30576235
0.08498396 -0.075036034 0.30542204
0.094363347 -0.074697487 0.30544987
0.10055608 -0.071411766 0.30669999
0.047497094 -0.068261363 0.30900002
0.058206066 -0.068682127 0.30889657
0.065415874 -0.067428246 0.30849203
0.075216554 -0.06580513 0.30818984
0.085050248 -0.064972483 0.30821833
0.09503369 -0.064968452 0.30801556
0.10481267 -0.064575128 0.30750361
0.11182706 -0.065208264 0.3071796
0.12310672 -0.063804142 0.30900002
0.086406752 -0.059335109 0.30900002
0.096507743 -0.059056398 0.30900002
0.10459042 -0.057746757 0.30893618
0.11443369 -0.059131797 0.30878949
-0.11915936 -0.010698033 0.30900002
0.04488799 0.0010429284 0.30900002
-0.15310924 -0.093338765 0.3116751
-0.14801081 -0.092910938 0.31000006
-0.15204649 -0.081959151 0.312125
-0.14496396 -0.084532388 0.31060049
-0.13533001 -0.082826689 0.3104091
-0.12497929 -0.083070293 0.31024352
-0.11505598 -0.082661904 0.31038967
-0.10452121 -0.083578661 0.31027156
-0.098036118 -0.081835918 0.31164104
-0.15302061 -0.074254714 0.3141343
-0.14503045 -0.075117119 0.31276679
-0.13495418 -0.075085476 0.31224343
-0.12506345 -0.075081035 0.3120724
-0.11506949 -0.07497225 0.31201619
-0.10498661 -0.075112037 0.31211904
-0.095350929 -0.07484585 0.3125613
-0.087654732 -0.071957327 0.31410417
0.049613964 -0.070281833 0.31
0.052190609 -0.070813522 0.30999997
-0.15340221 -0.065383464 0.31583166
-0.14492132 -0.06508965 0.3152557
-0.13497238 -0.065161645 0.31511664
-0.12503222 -0.065059975 0.31504709
-0.11498398 -0.065103315 0.31474388
-0.10502887 -0.06504155 0.31485769
-0.095003977 -0.065049991 0.31481105
-0.085296452 -0.064856328 0.31529361
-0.077405393 -0.063468084 0.31624565
0.038351037 -0.061137065 0.3126471
0.045739923 -0.063554332 0.31114489
0.054463908 -0.0646841 0.31062368
0.064520031 -0.062455144 0.31069586
0.073318146 -0.061138857 0.31009537
0.12243432 -0.062250435 0.31109306
0.027136592 -0.051986463 0.31406775
0.035440706 -0.05461121 0.31349462
0.044826616 -0.054904088 0.31330684
0.054359518 -0.054661095 0.31346086
0.065085985 -0.054950107 0.31292146
0.075089201 -0.055188715 0.31163573
0.084870204 -0.054605935 0.31102711
0.094757244 -0.054401502 0.31057653
0.10270534 -0.053027552 0.31035799
0.11423472 -0.05266897 0.31159684
0.12189537 -0.050137293 0.31500003
0.045138758 -0.044972718 0.31574297
0.055148941 -0.045146231 0.31566253
0.065010697 -0.045112036 0.31517309
0.074961185 -0.045124672 0.31449792
0.084904581 -0.045019511 0.31391406
0.095044702 -0.044922646 0.31341466
0.10493448 -0.04481658 0.31251904
0.11402434 -0.046023078 0.31200016
0.12166623 -0.048353229 0.31500003
-0.10800155 -0.010224566 0.31450003
-0.080722019 -0.0095150797 0.31300002
-0.07549201 -0.0089180106 0.31525001
-0.065849021 -0.0082329083 0.31450003
-0.050335255 -0.0068722032 0.31300002
-0.03602818 -0.005586233 0.31500003
-0.0086714206 -0.0035534047 0.3116667
0.0046975124 -0.0024640283 0.31233335
0.02267741 -0.0015864483 0.31300002
0.038933437 -0.00027008966 0.31900001
0.0098840492 0.11980183 0.31600001
0.0089678075 0.1209392 0.31900001
0.011289155 0.12056007 0.31800002
0.02747849 0.12059351 0.31740001
-0.16060483 -0.037849627 0.32600001
-0.15387008 -0.036915403 0.32310486
-0.14487278 -0.035086818 0.32277972
-0.13512087 -0.034995385 0.32278085
-0.12499285 -0.035041045 0.32251969
-0.11503159 -0.035048053 0.32279518
-0.14266944 -0.024940398 0.32605469
-0.13489477 -0.025037533 0.32528448
-0.12500389 -0.02502168 0.32522026
-0.11506743 -0.024949796 0.32534873
-0.10513181 -0.025003359 0.32526523
-0.095138185 -0.024981236 0.32481959
-0.085096627 -0.024938289 0.32462013
-0.074996181 -0.024868958 0.32422146
-0.065006725 -0.024974246 0.32408226
-0.054963611 -0.024802232 0.32395473
-0.045010321 -0.024943173 0.32360217
-0.034919679 -0.024826916 0.32318681
-0.024991011 -0.024791243 0.32272857
-0.015102494 -0.024776388 0.32252455
-0.14306389 -0.016547399 0.3278687
-0.13494022 -0.016004883 0.32751226
-0.12492294 -0.015715981 0.32732558
-0.11508425 -0.015345422 0.32716548
-0.10515138 -0.01511898 0.32731703
-0.094963193 -0.015320568 0.32684106
-0.085099563 -0.015054919 0.32653999
-0.075067773 -0.015163127 0.32632342
-0.065054484 -0.015000434 0.32637945
-0.055034887 -0.015154863 0.32612821
-0.04496938 -0.014975888 0.32579431
-0.034979187 -0.01512621 0.32551509
-0.024859583 -0.015085852 0.3251504
-0.01497956 -0.015090266 0.32505557
-0.0049291388 -0.015020749 0.32503831
0.005011566 -0.014996203 0.32452607
0.014936109 -0.014985804 0.3243053
0.025174348 -0.015311627 0.32398179
0.034975428 -0.015244579 0.32353544
0.04495468 -0.015265354 0.32341537
0.055034552 -0.015356697 0.32323641
0.065015554 -0.015266376 0.32279825
0.074944153 -0.015214833 0.32193211
-0.10884387 -0.0099406755 0.32700002
-0.080486663 -0.0098494757 0.324
-0.074640125 -0.0094271963 0.32660604
-0.064398281 -0.0091437921 0.3269347
-0.054804243 -0.0088167777 0.32696596
-0.044882398 -0.0082461676 0.32698843
-0.034706581 -0.0079551199 0.32679555
-0.024550062 -0.0075296131 0.32699043
-0.01496473 -0.007146501 0.3267951
-0.0048303651 -0.0068413243 0.32679847
0.005095704 -0.0065167178 0.32667756
0.034965403 -0.0054322938 0.32597157
0.045080721 -0.0051684924 0.32608366
0.054955211 -0.005002927 0.32552734
0.06488663 -0.0051483298 0.32518533
0.075160421 -0.0049155313 0.32490882
0.085048094 -0.0050482647 0.32417825
0.094377905 -0.0056249867 0.3234179
0.10220915 -0.0068249586 0.32299998
0.056181639 0.0014445977 0.32610011
0.065439381 0.0023873677 0.32611004
-0.084617659 0.10973471 0.32399994
-0.090860806 0.1126897 0.324
-0.084611699 0.11302203 0.3238782
-0.074620821 0.11378653 0.32388481
-0.064953901 0.11466726 0.32365578
-0.054936882 0.11543703 0.32324511
-0.044596728 0.11634327 0.32334235
-0.035057463 0.11717475 0.32300887
-0.024976395 0.11766206 0.32299998
-0.015356933 0.11798268 0.32299998
-0.0048963889 0.11828694 0.32278666
0.0043990677 0.1186908 0.32292306
0.014775426 0.11895768 0.32245955
0.024215387 0.11942714 0.32277271
0.032332476 0.11918776 0.32200003
-0.043513101 0.12110405 0.32625002
-0.034137648 0.12046081 0.32335293
-0.025124816 0.12063746 0.32299998
-0.015537936 0.12149373 0.32372919
-0.0045357486 0.12126208 0.32290563
0.0047741132 0.12133226 0.32288679
0.014766568 0.12110958 0.32255778
0.025119973 0.12096278 0.32235423
0.031934511 0.12112721 0.32214287
-0.071125008 0.11992043 0.333
-0.067369483 0.11908015 0.33066669
-0.071561083 0.12236184 0.33616671
-0.013079455 0.1263624 0.33399999
