# .PCD v0.7 - Point Cloud Data file format
VERSION 0.7
FIELDS x y z
SIZE 4 4 4
TYPE F F F
COUNT 1 1 1
WIDTH 563
HEIGHT 1
VIEWPOINT 0 0 0 1 0 0 0
POINTS 563
DATA ascii
0.1341192 -0.11227991 0.28899992
0.133867 -0.10415449 0.28884211
0.099275976 -0.10058667 0.29800001
0.10122149 -0.10064725 0.29725003
0.1344589 -0.10440414 0.29160374
0.089510456 -0.091772288 0.29900002
0.095974289 -0.094048373 0.29818517
0.10362767 -0.09404473 0.29822505
0.1142337 -0.091094956 0.29899988
0.12669024 -0.090245083 0.29812503
0.13672855 -0.094206594 0.29468077
0.14230248 -0.091275245 0.29760003
0.10457955 -0.08987879 0.29900002
0.11705114 -0.088482931 0.29899985
0.12499105 -0.08686436 0.29855555
0.13514894 -0.085432492 0.29822767
0.14223267 -0.08197204 0.29891482
0.13937262 -0.079780124 0.29900002
0.14195468 -0.078776009 0.29899997
-0.15795508 -0.14117265 0.30833337
-0.15409079 -0.13373162 0.30795652
-0.14938648 -0.13148049 0.30655557
-0.15352669 -0.1250852 0.3079997
-0.14536451 -0.12426749 0.3055658
-0.13771322 -0.12162015 0.30459189
-0.15207244 -0.11672124 0.30875
-0.14483576 -0.1149568 0.30746704
-0.13528208 -0.11467223 0.30603489
-0.12686203 -0.11234793 0.3063955
-0.14324631 -0.10798559 0.30887499
-0.13458388 -0.107246 0.30827823
-0.12483612 -0.10609734 0.30820242
-0.1182477 -0.10515154 0.3086842
0.087804101 -0.090767108 0.30013645
0.09497346 -0.090422973 0.30000007
0.10572092 -0.090179384 0.29999998
0.07650727 -0.081767708 0.30400002
0.085358389 -0.084796116 0.30227038
0.095028877 -0.084841013 0.30132172
0.10493062 -0.08480984 0.30093747
0.11472281 -0.084436283 0.30082598
0.12487768 -0.082022466 0.30030325
0.13365699 -0.081131883 0.30019301
0.14189689 -0.083846614 0.30000001
0.067858778 -0.074119143 0.30826527
0.074947506 -0.07487867 0.30677357
0.085049435 -0.075121097 0.30580279
0.094974987 -0.07490664 0.3046658
0.10518836 -0.074928187 0.30444053
0.11497417 -0.074891701 0.30401522
0.1249586 -0.075166196 0.30287728
0.13486257 -0.074876249 0.30203003
0.14469737 -0.073867813 0.30224705
0.15040487 -0.070826858 0.303
0.069185264 -0.069239773 0.30900002
0.076096229 -0.068500593 0.30874658
0.085217766 -0.067131728 0.30843884
0.095200658 -0.066790819 0.30808133
0.10502538 -0.065639384 0.30755022
0.11496761 -0.064826466 0.30719081
0.12497073 -0.065062068 0.30619311
0.13503128 -0.065240189 0.30517012
0.1446559 -0.068179853 0.30414301
0.15051147 -0.069654241 0.303
0.11705647 -0.058749001 0.30900002
0.12580761 -0.057144091 0.30831876
0.1338902 -0.05634626 0.30813241
0.14012025 -0.05929257 0.30900002
-0.15930648 -0.14045136 0.31033334
-0.16379717 -0.13415085 0.31286082
-0.15857311 -0.13531023 0.31050006
-0.17117898 -0.12625574 0.31617647
-0.16444756 -0.12479469 0.31243038
-0.15835226 -0.12447714 0.31023645
-0.17137951 -0.11627441 0.31622222
-0.16398494 -0.11436117 0.31265369
-0.15616435 -0.11413385 0.31058547
-0.14964676 -0.11019942 0.31
-0.17188945 -0.10515734 0.3160308
-0.16484582 -0.10496236 0.31445572
-0.15486442 -0.1048474 0.31234223
-0.14561623 -0.10395599 0.3108471
-0.13539231 -0.10226112 0.3104358
-0.12553592 -0.10129081 0.31009686
-0.11552007 -0.10199145 0.31003651
-0.10778541 -0.10005093 0.31100002
-0.17096668 -0.097336993 0.31815389
-0.16491127 -0.095081627 0.31701019
-0.15489951 -0.095001318 0.31493133
-0.1449811 -0.094881706 0.31365559
-0.13499786 -0.094743878 0.31293651
-0.1250591 -0.095033608 0.31223744
-0.11502459 -0.09510237 0.31199235
-0.10631588 -0.093741655 0.3127946
-0.09911529 -0.091462627 0.31376922
-0.16336139 -0.087479003 0.31854898
-0.15496653 -0.086101823 0.31765094
-0.14500673 -0.084949076 0.31710774
-0.13506961 -0.084868476 0.31649217
-0.1249768 -0.084922887 0.31609508
-0.11545239 -0.085554652 0.31588852
-0.10501269 -0.085153691 0.31543174
-0.095518254 -0.084187321 0.31622669
-0.088471651 -0.081702389 0.31791297
-0.14397672 -0.078946479 0.31900018
-0.13474311 -0.078014456 0.31870762
-0.12478875 -0.077560425 0.31863493
-0.11521808 -0.077088028 0.31887808
-0.10499583 -0.077521667 0.31824476
-0.09488719 -0.076430395 0.31854674
-0.085920244 -0.075622492 0.31892774
-0.079357855 -0.074791349 0.31900001
0.058579188 -0.070921026 0.31088892
0.063225754 -0.071959347 0.31015107
0.047780994 -0.061562739 0.31562495
0.055515431 -0.064386971 0.31322476
0.064995542 -0.065043882 0.31197208
0.074820288 -0.063673019 0.311075
0.08479695 -0.062082741 0.31062096
0.094588131 -0.061782572 0.31030685
0.10378766 -0.061020534 0.31004778
0.036547918 -0.052613389 0.3181839
0.04499511 -0.054686371 0.31678206
0.055019084 -0.055017754 0.31640318
0.064995952 -0.055165935 0.31550235
0.074963264 -0.055065788 0.3145186
0.084972896 -0.054916739 0.31362784
0.094922639 -0.054824457 0.31251407
0.10509036 -0.055107046 0.31153673
0.11468301 -0.054483689 0.31112772
0.1243154 -0.052535981 0.31079727
0.13563904 -0.051512927 0.31009817
0.14058949 -0.050375964 0.31100002
0.036384191 -0.049330991 0.31900004
0.045606073 -0.04872321 0.31900018
0.055671576 -0.04820399 0.31876162
0.065215647 -0.047481094 0.3183783
0.075389408 -0.046095226 0.31786057
0.085010231 -0.045135632 0.31731975
0.095197767 -0.045215148 0.31622678
0.10507137 -0.045024037 0.31462875
0.11499163 -0.044919059 0.31363657
0.1250121 -0.044950917 0.31311563
0.13461906 -0.045035478 0.31227419
0.14231479 -0.042645287 0.31395751
0.086594135 -0.039700516 0.3190001
0.095750615 -0.037965868 0.31861788
0.10546497 -0.036257129 0.31796202
0.1150675 -0.035181515 0.3172605
0.12508701 -0.035013124 0.31669956
0.13467288 -0.034822647 0.31555873
0.14394873 -0.03529318 0.31693447
0.11808679 -0.029654162 0.31900001
0.12585613 -0.028193988 0.3189407
0.13455807 -0.027716162 0.31816685
0.1414056 -0.028775483 0.31775004
0.16366836 -0.027791478 0.31800002
-0.17418101 -0.094681285 0.3209269
-0.1801272 -0.082774743 0.32300001
-0.17355508 -0.085729159 0.32152054
-0.16592734 -0.083466381 0.32052556
-0.15575869 -0.081361808 0.32235295
-0.11481826 -0.08317928 0.32223532
-0.18083841 -0.072977953 0.32800001
-0.17262495 -0.074684784 0.32450542
-0.16490552 -0.074919395 0.32289422
-0.15546426 -0.07479623 0.32247558
-0.14513268 -0.074077092 0.32107478
-0.13512172 -0.073284864 0.32099959
-0.12516345 -0.072570175 0.32049978
-0.1149995 -0.072179236 0.32063183
-0.10499717 -0.072280437 0.32040316
-0.095518485 -0.071551688 0.32001776
-0.084352702 -0.071379267 0.32007006
-0.077815481 -0.071871191 0.32070214
-0.17296992 -0.065167196 0.32759282
-0.16508129 -0.064908102 0.3264752
-0.15498732 -0.065019466 0.32513765
-0.14496377 -0.065049373 0.32400483
-0.13495128 -0.064926036 0.32385972
-0.12504706 -0.065146066 0.32346359
-0.1149717 -0.065021738 0.32301885
-0.10501768 -0.065001041 0.3226544
-0.094940655 -0.065116853 0.32208562
-0.08501514 -0.065214276 0.32206818
-0.075348072 -0.064678773 0.32269111
-0.067815885 -0.062335689 0.323915
-0.1729169 -0.057487518 0.32900017
-0.1640642 -0.057444248 0.32878008
-0.15488818 -0.056126699 0.32818541
-0.1448445 -0.055257324 0.32749975
-0.1351513 -0.054938387 0.32726035
-0.12495968 -0.055026662 0.32665744
-0.11501066 -0.05499563 0.32646742
-0.10502908 -0.055066321 0.32632738
-0.095129073 -0.055021856 0.32611865
-0.085123338 -0.055312771 0.32558092
-0.075030655 -0.055123042 0.32516447
-0.06532082 -0.055018455 0.32516292
-0.057563502 -0.052631482 0.32622227
0.030611789 -0.050257627 0.32000002
-0.14083126 -0.049170941 0.32900003
-0.13523744 -0.048830017 0.3290002
-0.12488528 -0.048425518 0.32886457
-0.11518502 -0.048217177 0.32893077
-0.10481779 -0.047658365 0.32870343
-0.094801709 -0.047251359 0.3285726
-0.084812224 -0.046926912 0.32811001
-0.075022839 -0.046258423 0.32803923
-0.064826071 -0.045765769 0.32791263
-0.05516766 -0.045075521 0.32810006
-0.048586797 -0.043276791 0.32856426
0.018443108 -0.040892858 0.32339996
0.026092255 -0.043709263 0.32235911
0.035012186 -0.044678368 0.32099968
0.044925336 -0.044073898 0.32097667
0.054726608 -0.043263316 0.32079294
0.064790681 -0.042381931 0.32051319
0.073540598 -0.041427404 0.32025847
0.081611723 -0.040125191 0.32000002
-0.053235121 -0.039660458 0.32900003
-0.044979498 -0.038765118 0.32900015
-0.033969253 -0.03577283 0.32900017
-0.024623448 -0.035676703 0.32900012
-0.014418031 -0.034218483 0.32809973
-0.0050842417 -0.033659603 0.32783669
0.0052027395 -0.033789575 0.32676464
0.015111817 -0.034942016 0.32528839
0.025050374 -0.035327367 0.32489371
0.034980711 -0.035157736 0.32490882
0.045008313 -0.035142381 0.32396007
0.05506324 -0.035181642 0.3235437
0.06503047 -0.035058916 0.32320735
0.075064056 -0.035002302 0.32274127
0.084936783 -0.034718562 0.32135817
0.094502106 -0.033047397 0.32051715
0.10365555 -0.031484179 0.32019666
0.11133355 -0.030668249 0.32000002
0.14854388 -0.033786226 0.32183334
0.1503419 -0.033787359 0.324
0.1664017 -0.031174563 0.32227278
-0.012280391 -0.029447312 0.32900003
-0.0034255891 -0.028926441 0.32900006
0.0054048486 -0.028063035 0.32882375
0.015509392 -0.027503343 0.3280336
0.025199808 -0.026062232 0.32803342
0.035046641 -0.025344739 0.32787356
0.044952258 -0.025069093 0.32723746
0.055020817 -0.025138624 0.32682371
0.065023452 -0.025091149 0.3264792
0.075048044 -0.025035582 0.32573155
0.085032955 -0.024912754 0.324393
0.095010862 -0.02484671 0.3233892
0.10510906 -0.024924044 0.32199115
0.11490861 -0.024823979 0.32128838
0.12445695 -0.023610467 0.32064152
0.13379709 -0.022351205 0.32062677
0.16619548 -0.029054822 0.32169232
0.03807044 -0.019724391 0.32900003
0.045669027 -0.019234166 0.32900015
0.055381354 -0.018708374 0.32900026
0.065580696 -0.017433278 0.32866353
0.07532303 -0.015830204 0.32834223
0.085002214 -0.014763567 0.32752928
0.094991609 -0.015000652 0.32668406
0.10508364 -0.015131264 0.32535833
0.11515523 -0.01505156 0.32431775
0.12500782 -0.015270386 0.32352746
0.13446625 -0.016660092 0.32288745
0.14008282 -0.017030843 0.324
0.086603336 -0.0090618655 0.32900003
0.095470287 -0.0090052318 0.32845107
0.10513566 -0.008610528 0.32827026
0.11550654 -0.0070951674 0.32785803
0.12507752 -0.0064366465 0.32742497
0.13773027 -0.0035358174 0.32720512
0.14068958 -0.0033830884 0.32700002
0.16566798 -0.005124392 0.32800004
-0.18097521 -0.061116863 0.333
-0.17775936 -0.061539859 0.33085713
-0.1808385 -0.059109822 0.33375001
-0.17441456 -0.055908412 0.33154166
-0.16516826 -0.05272878 0.33037207
-0.15554611 -0.051365286 0.33004078
-0.14920063 -0.050783273 0.33000001
-0.17319982 -0.044657413 0.33445245
-0.16485184 -0.045168575 0.33326101
-0.15492798 -0.045209847 0.33225536
-0.14509694 -0.044886876 0.33127058
-0.13498335 -0.043906432 0.33105999
-0.125209 -0.043566141 0.33102006
-0.11504561 -0.043240905 0.33072966
-0.10512605 -0.042707857 0.33061805
-0.095232792 -0.042262517 0.33035287
-0.085698113 -0.041772921 0.33015376
-0.075012177 -0.04137912 0.32999995
-0.066652916 -0.040914699 0.32999998
-0.17196979 -0.036879953 0.33700001
-0.1644748 -0.035501257 0.33624241
-0.15506938 -0.035068557 0.33567977
-0.14498752 -0.034946766 0.33484343
-0.13492878 -0.034882274 0.33432826
-0.12507932 -0.034991547 0.33397982
-0.11519475 -0.034954682 0.33394668
-0.10498576 -0.035089865 0.33305681
-0.094992645 -0.035014421 0.33262825
-0.08484675 -0.035087474 0.33211422
-0.074973181 -0.035296872 0.33178723
-0.065065742 -0.035384178 0.33192587
-0.055095267 -0.03479274 0.33095914
-0.045364961 -0.033999126 0.33056843
-0.035642464 -0.032724496 0.33033922
-0.024778413 -0.032465611 0.33007771
-0.018621994 -0.031940103 0.32999998
-0.16156422 -0.028260611 0.33900011
-0.15463267 -0.026963016 0.33838692
-0.14469711 -0.025840053 0.33805281
-0.13514327 -0.024851698 0.33784509
-0.1250896 -0.02505748 0.33724526
-0.11497724 -0.024960078 0.33698058
-0.10494392 -0.025127208 0.33640516
-0.095065057 -0.025109436 0.3359513
-0.0850261 -0.025066473 0.33542421
-0.074996255 -0.02501015 0.33490816
-0.06500338 -0.024993554 0.33440536
-0.054926269 -0.024959467 0.33379224
-0.04490466 -0.024903689 0.33315656
-0.034940012 -0.024894468 0.33266523
-0.025091637 -0.024995722 0.3319855
-0.015248151 -0.024948852 0.33120063
-0.0052594827 -0.024452424 0.33087981
0.0049331342 -0.023378167 0.33069569
0.01449919 -0.022620862 0.33044314
0.024200268 -0.02117439 0.33021951
0.031220106 -0.020480949 0.33000001
-0.13108604 -0.019608315 0.33900002
-0.12415596 -0.01942 0.33900011
-0.1142614 -0.018733686 0.33899993
-0.10456335 -0.017849723 0.33867922
-0.094550997 -0.017076168 0.33855879
-0.084731184 -0.016182112 0.33821303
-0.074786201 -0.015685143 0.33792594
-0.064933561 -0.014933827 0.33756277
-0.05502988 -0.014881702 0.33712929
-0.045143425 -0.014914469 0.33652088
-0.035147678 -0.014753491 0.3358897
-0.025065089 -0.015021116 0.33511367
-0.015135531 -0.01503142 0.33436704
-0.0049272487 -0.01516086 0.33388564
0.0051535177 -0.015066466 0.33371896
0.014988929 -0.015039937 0.33311909
0.02492464 -0.015093585 0.33239841
0.03491725 -0.014763277 0.33152854
0.044856731 -0.014186949 0.33115682
0.054888897 -0.01361614 0.33063748
0.064469323 -0.012505341 0.33029646
0.073832333 -0.010974741 0.33013043
-0.062330846 -0.0087597677 0.33900011
-0.054788388 -0.0086452737 0.33899999
-0.044426423 -0.007618282 0.33862913
-0.0346292 -0.0069061778 0.33838162
-0.025010182 -0.0068779285 0.33822906
-0.013324289 -0.0064043957 0.33769467
-0.00471758 -0.0049561053 0.33753633
0.0052099526 -0.0049063279 0.33739811
0.015142338 -0.004893682 0.33652556
0.025049098 -0.0048866901 0.33600467
0.034951217 -0.0049040047 0.33550239
0.044942651 -0.0049269316 0.33453658
0.055024941 -0.0047708838 0.33379689
0.065035433 -0.0049250331 0.33293575
0.075025931 -0.0048809852 0.33271232
0.084761709 -0.0043940372 0.33196363
0.094813801 -0.0039198161 0.33101845
0.10502012 -0.0034645582 0.33073682
0.11424696 -0.0021651508 0.33047715
0.12324164 -0.0014462163 0.32999995
0.13647176 -0.0034014203 0.33300006
-0.081709392 0.009731425 0.33900002
-0.0019196029 0.00042858021 0.33900002
0.006153299 0.00098764524 0.33900002
0.015395137 0.0015634787 0.33884487
0.025870405 0.0028866357 0.33848587
0.03536427 0.0041707698 0.33811912
0.045178812 0.0049945489 0.33757555
0.055063888 0.0049977233 0.33689961
0.06498567 0.00502175 0.3360751
0.074950695 0.0050320951 0.33577281
0.084960669 0.0050551146 0.33493176
0.095044769 0.0049916576 0.33423841
0.1050282 0.0049830605 0.33384487
0.11493527 0.0050066751 0.33318216
0.12357414 0.0045851753 0.33252829
0.13584819 0.0019546077 0.33605263
-0.004874418 0.012941795 0.33437261
0.0046934257 0.013200669 0.33365381
0.01492469 0.013573484 0.33338889
0.023990208 0.015053227 0.33518186
0.047772747 0.010867971 0.33900008
0.0559224 0.011696735 0.33891675
0.065637499 0.013198212 0.33853355
0.074950956 0.013353501 0.33831522
0.085105054 0.014090695 0.33794975
0.095102601 0.014671741 0.33786517
0.10489366 0.015053644 0.33708376
0.11470516 0.014351033 0.3363829
0.12349194 0.014143337 0.33587024
0.16598944 0.019114185 0.33817649
0.098724909 0.02097662 0.33900002
0.1040521 0.020942453 0.338871
0.11241302 0.021866497 0.33850002
0.16628769 0.021519979 0.33869234
-0.1680472 -0.030730778 0.34066668
-0.17669888 -0.024428334 0.34440005
-0.16456583 -0.026202569 0.34059453
-0.15506673 -0.022274256 0.34024
-0.14681913 -0.021354891 0.34000006
-0.16105872 -0.011317809 0.34609088
-0.15389912 -0.015309284 0.34311518
-0.14499275 -0.015194661 0.34203181
-0.13497922 -0.014957041 0.34143659
-0.12514843 -0.014562015 0.34121647
-0.1154108 -0.013887958 0.34088492
-0.10529975 -0.012963833 0.34064904
-0.095368803 -0.012209816 0.34045777
-0.085321873 -0.011359976 0.34016001
-0.075939558 -0.010874155 0.34000006
-0.069390416 -0.010335871 0.34
-0.16215277 -0.0083434023 0.34796154
-0.15369174 -0.0059351563 0.34717593
-0.14504661 -0.0049673975 0.34630397
-0.134947 -0.0051241196 0.34530771
-0.12501778 -0.0050242837 0.34503278
-0.11522943 -0.0049896291 0.34509942
-0.10496571 -0.0050280825 0.34366617
-0.094970845 -0.0050241249 0.34266651
-0.084977739 -0.0049977098 0.34216547
-0.074897125 -0.0049333377 0.34175235
-0.065431334 -0.0043858131 0.34190154
-0.055101138 -0.0037405323 0.34081802
-0.045377113 -0.0027112993 0.34052327
-0.035195 -0.0019447833 0.34032044
-0.024517063 -0.0019809618 0.34002572
-0.016598791 -0.0031102689 0.34002283
-0.0091024097 -0.00028786986 0.34
-0.15377724 0.003564781 0.34764284
-0.14484879 0.0046534608 0.34857038
-0.13490912 0.0042552915 0.34680414
-0.12503697 0.0047605978 0.34621242
-0.11495972 0.0048733628 0.34630954
-0.10489882 0.0048543937 0.34590766
-0.094853327 0.0050955829 0.3445828
-0.084925443 0.0051504523 0.34401616
-0.074960791 0.0051663704 0.34353033
-0.065019466 0.0051674163 0.34329969
-0.054876771 0.0051771458 0.34287456
-0.045060717 0.0050951131 0.34245095
-0.03516506 0.0051309858 0.34216794
-0.02501297 0.00512309 0.34164757
-0.014907992 0.0051217177 0.34143841
-0.0049007647 0.0052612475 0.34091035
0.0050816047 0.0059096045 0.34062794
0.015085089 0.0065251328 0.34057882
0.024143362 0.0076305871 0.34031525
0.034043271 0.0090608178 0.34000009
0.041137598 0.0097601302 0.34
-0.1439811 0.010570296 0.34300002
-0.051484596 0.010485549 0.34025002
-0.045120448 0.010508662 0.34100005
-0.034361441 0.010640754 0.34117651
-0.024992855 0.010880453 0.3413929
-0.014908542 0.01088288 0.34146431
-0.0048801177 0.011080158 0.34088564
0.0055698152 0.011167725 0.34084603
0.015370845 0.011588093 0.34080377
0.025411298 0.012636574 0.34080201
0.03507882 0.014898372 0.34131286
0.044664215 0.015532781 0.34113175
0.054639023 0.016611846 0.34066182
0.064240053 0.018028013 0.34025005
0.075105272 0.018452745 0.34020635
0.083801009 0.019028055 0.34040481
0.092741273 0.019521046 0.34
0.12595968 0.01988581 0.34133336
0.038354598 0.023012187 0.3451795
0.045142055 0.025046494 0.34456211
0.055067137 0.025108965 0.34374022
0.065017588 0.025045751 0.34279671
0.074863374 0.025101209 0.34239396
0.084998876 0.024934726 0.34211424
0.094373643 0.024552323 0.34067538
0.10532299 0.026018243 0.34149018
0.11281499 0.026573656 0.34033334
0.12702408 0.022748815 0.34230235
0.046810236 0.034101021 0.3473869
0.055031102 0.034780297 0.34680921
0.065059736 0.034818094 0.34656683
0.075180531 0.034917526 0.34578344
0.084716529 0.035274245 0.34500036
0.093120731 0.035404678 0.34457836
0.10396937 0.031151013 0.34366664
0.049409483 0.040407885 0.34900001
0.055666298 0.04089728 0.34900001
0.065471642 0.042156875 0.34875605
0.07467369 0.042326715 0.34846982
0.086159594 0.043110777 0.34788644
0.093830846 0.041984737 0.34631702
0.12637924 0.048863348 0.34900001
0.16409177 0.046377797 0.34500003
0.12573817 0.050748169 0.34900001
-0.16275783 -0.0050434642 0.35178795
-0.15739703 -0.0022402876 0.35037503
-0.1546174 0.0031969554 0.35022724
-0.14937721 0.0056142523 0.35000002
0.041112445 0.029298401 0.35050002
0.044073369 0.035948765 0.35122859
0.047771163 0.044698291 0.35296044
0.05490686 0.045885965 0.35144788
0.064496137 0.047075916 0.35057616
0.075008929 0.047214396 0.35058147
0.082101934 0.046760973 0.35103846
0.12637085 0.047847763 0.35420004
0.048358835 0.054177728 0.35620692
0.054777127 0.054982934 0.35430765
0.0651417 0.054615371 0.35348496
0.074291877 0.054312609 0.35301456
0.082684025 0.052150331 0.35353488
0.049739014 0.060153764 0.35800001
0.055488557 0.064448275 0.35798442
0.06283655 0.064856797 0.35809189
0.070854031 0.060228925 0.354
0.058971811 0.07017348 0.35900006
0.047780585 0.059785191 0.36033335
0.048945874 0.065434888 0.36252379
0.052271362 0.068002701 0.36063641
0.06837099 0.068586193 0.3646667
0.049704887 0.072304323 0.36440003
0.053051606 0.071925946 0.36165905
0.083514154 0.078886092 0.36737502
0.12684825 0.076041326 0.36359528
0.0835426 0.081047833 0.36750001
0.082310416 0.081268705 0.37122223
0.079023272 0.10340293 0.37300006
0.080797121 0.10317794 0.37338465
-0.16111198 0.15809292 0.41699997
-0.15887073 0.1577408 0.417
-0.16036716 0.16073368 0.41700003
-0.14268865 0.18898654 0.41900012
-0.13884749 0.18963099 0.41900006
-0.12568189 0.18957493 0.41800001
-0.11899515 0.1897821 0.41700003
-0.14198738 0.1924171 0.41900009
-0.13473266 0.1935367 0.41900006
-0.12493072 0.19327356 0.41849348
-0.11458138 0.19384913 0.41711673
-0.10487735 0.19364192 0.41601604
-0.094591796 0.1935038 0.4155398
-0.085596189 0.19480418 0.41552332
-0.077697568 0.19471966 0.41525003
-0.14585783 0.18878323 0.41999999
-0.14581557 0.1938266 0.42144004
-0.076241069 0.19923314 0.42400002
-0.076780505 0.20154418 0.42700002
