# .PCD v0.7 - Point Cloud Data file format
VERSION 0.7
FIELDS x y z
SIZE 4 4 4
TYPE F F F
COUNT 1 1 1
WIDTH 248
HEIGHT 1
VIEWPOINT 0 0 0 1 0 0 0
POINTS 248
DATA ascii
-0.011473648 0.02941934 0.289
-0.0046178843 0.028811742 0.28899977
0.0043573896 0.028944628 0.28893861
0.012333836 0.029404093 0.289
-0.020722553 0.032219067 0.289
-0.014793681 0.032534521 0.28899997
-0.0047394377 0.03374989 0.28883925
0.0051582218 0.034586389 0.28828326
0.014674545 0.034920879 0.28844529
0.020942122 0.036332782 0.28899983
0.0090395259 0.040019084 0.289
0.015367099 0.040586576 0.28899986
0.020508602 0.040263109 0.289
-0.15202552 0.027425669 0.2984468
-0.1447902 0.026205894 0.2973251
-0.1347854 0.025508601 0.2965259
-0.12499439 0.025705207 0.29609481
-0.11521269 0.026296549 0.29571706
-0.10500555 0.026584517 0.29519448
-0.094890893 0.026448432 0.29480228
-0.084977791 0.026263537 0.29462302
-0.074941896 0.026398506 0.29414272
-0.065020278 0.026476994 0.29386103
-0.054994579 0.026775496 0.29372931
-0.044893056 0.02671572 0.29302123
-0.034905285 0.026622696 0.29305166
-0.025049379 0.026724678 0.29276359
-0.015167798 0.026652886 0.29268029
-0.005103637 0.025948597 0.29385135
0.005437681 0.02610716 0.29385859
0.015156496 0.026783718 0.29288393
0.023790102 0.027608141 0.29445136
-0.15271586 0.033901099 0.29878718
-0.14495301 0.034400731 0.29820523
-0.13497758 0.034851119 0.29723626
-0.12489982 0.034795072 0.29640517
-0.1148762 0.034990042 0.2958703
-0.10486709 0.034952816 0.29526344
-0.094880179 0.03486694 0.29431638
-0.085048273 0.034786247 0.29369229
-0.075044081 0.034970395 0.293147
-0.064993948 0.034965478 0.29262993
-0.055028789 0.034935765 0.2924096
-0.044793714 0.035011217 0.29171482
-0.034826458 0.035088856 0.29104713
-0.025191057 0.03517811 0.29055005
-0.015419479 0.037533246 0.29033652
-0.0058832397 0.038656715 0.29003286
0.0024049736 0.039477371 0.28999999
0.018593421 0.030702965 0.28999999
0.025450479 0.034593236 0.29130906
-0.14023414 0.040141497 0.29900002
-0.13368578 0.040756885 0.29899988
-0.12422848 0.041791108 0.29861951
-0.11468744 0.043482702 0.29833341
-0.10485509 0.044246018 0.29820329
-0.094777472 0.044709049 0.2978541
-0.084936075 0.044937894 0.29720613
-0.074966781 0.044782043 0.2963089
-0.064913392 0.044914685 0.29563394
-0.055030998 0.044986658 0.29552931
-0.045126982 0.045116093 0.29511112
-0.035028547 0.045150496 0.29447883
-0.025074905 0.044951491 0.29360795
-0.015087341 0.044928014 0.29276776
-0.0049058334 0.044680256 0.29194748
0.0051037804 0.045009673 0.29150608
0.014841462 0.045764655 0.2912491
0.0243877 0.044918515 0.29144648
-0.083960675 0.050373033 0.29899999
-0.074370019 0.05131644 0.29863638
-0.064812161 0.052647069 0.29850429
-0.05488693 0.053128056 0.2984471
-0.044878736 0.054026302 0.29807127
-0.034849226 0.054820672 0.29752848
-0.024864117 0.054889858 0.2967959
-0.014803883 0.054762162 0.29610407
-0.0047348579 0.054896962 0.29553938
0.0051422548 0.055147786 0.29504079
0.015110158 0.055065174 0.29437861
0.024214337 0.055045977 0.2945908
-0.031147538 0.060549211 0.29900002
-0.024338026 0.061657794 0.29881233
-0.014782973 0.062359933 0.29852036
-0.004564709 0.063239045 0.29840565
0.0053030155 0.064017773 0.29817894
0.015228406 0.064666517 0.29775614
0.023501685 0.063997433 0.29779425
-0.16070727 0.023693483 0.30553848
-0.15551996 0.024004877 0.30279425
-0.14548495 0.021213666 0.30268523
-0.13447477 0.020639513 0.30307406
-0.12465835 0.021172823 0.30414513
-0.1149294 0.021746611 0.30420923
-0.10512352 0.021891901 0.30426589
-0.095120586 0.021922557 0.30400005
-0.085164428 0.021558544 0.30349377
-0.15562375 0.035249781 0.30036071
-0.14621504 0.039103016 0.30000007
-0.15407161 0.045131505 0.30338991
-0.1449375 0.044920087 0.30162343
-0.13536009 0.045653496 0.30088773
-0.12533656 0.046793807 0.30059436
-0.11550359 0.048501324 0.3002702
-0.10561382 0.049141623 0.30000013
-0.097598068 0.049479377 0.30000001
-0.15399866 0.054987859 0.3064585
-0.14490288 0.055135436 0.30526936
-0.13501967 0.054952823 0.30407271
-0.12512614 0.054911681 0.30305949
-0.11499801 0.054962795 0.3026289
-0.10492549 0.054956939 0.302075
-0.09494216 0.055103615 0.30141515
-0.085019141 0.05547652 0.30116063
-0.075183369 0.056383926 0.30106518
-0.065222658 0.057518158 0.30070868
-0.05531342 0.057898682 0.30023232
-0.045382731 0.059042655 0.30000013
-0.037408575 0.059836976 0.29999998
-0.15323989 0.061826695 0.30883634
-0.14444789 0.063614406 0.30804962
-0.13481282 0.064741902 0.30764562
-0.12500189 0.064893991 0.30688906
-0.11489842 0.064753354 0.30617714
-0.10514517 0.065095201 0.30611154
-0.095088288 0.065167151 0.30530956
-0.08501102 0.064881243 0.30431515
-0.074901626 0.065038785 0.30397797
-0.064962395 0.065029494 0.30351973
-0.054917708 0.06503313 0.30282831
-0.044916194 0.064966023 0.3019217
-0.035022873 0.065182604 0.30114093
-0.025431696 0.066636898 0.30078146
-0.015172914 0.067513861 0.30050409
-0.0055143782 0.068002559 0.30021155
0.0047591929 0.068802699 0.30000013
0.011012018 0.069225565 0.29999998
0.025315642 0.068423942 0.3004849
-0.13122647 0.070184149 0.30900002
-0.12443193 0.070890792 0.30900002
-0.115224 0.071266234 0.30894002
-0.10465089 0.072640441 0.30858845
-0.094697624 0.07360661 0.30840507
-0.084662683 0.07395041 0.30782789
-0.075012133 0.074868642 0.3074252
-0.065033898 0.075186104 0.30685332
-0.054983456 0.075074472 0.30617034
-0.044927012 0.074857607 0.30541608
-0.034968816 0.07493826 0.30464295
-0.024960278 0.075231165 0.30402792
-0.014989005 0.074931242 0.30338427
-0.0048929839 0.074901663 0.30288893
0.0049900506 0.075083598 0.30241805
0.014854436 0.074999377 0.30200419
0.023978448 0.074981965 0.30248645
-0.063251249 0.081353955 0.30883786
-0.054298572 0.082436778 0.30856436
-0.044811599 0.083376281 0.3080982
-0.034974456 0.084361836 0.30788898
-0.024776081 0.08471889 0.30746216
-0.015029183 0.084997624 0.30710912
-0.0049948026 0.0848554 0.30652878
0.0051312493 0.085163176 0.30582339
0.015039184 0.085216247 0.30556703
0.023813035 0.085102163 0.30570057
-0.020665722 0.090404697 0.30900002
-0.014234078 0.091016062 0.30897439
-0.0048104543 0.091868408 0.30873629
0.0046429639 0.091945931 0.30840793
0.01532481 0.092219427 0.30829483
0.022866601 0.0923317 0.30850974
-0.16030844 0.06431172 0.31280002
-0.15436879 0.066488527 0.31074762
-0.14608088 0.068380252 0.31008953
-0.13819501 0.069320634 0.30999997
-0.15444796 0.075064704 0.31416535
-0.14489172 0.074997731 0.31245014
-0.13513334 0.075140469 0.31159055
-0.12520537 0.075909697 0.31112126
-0.11512996 0.076165274 0.31086746
-0.10529149 0.077394515 0.31075305
-0.095709853 0.078439042 0.31012514
-0.086338848 0.078838505 0.31000015
-0.15448339 0.08325991 0.31720734
-0.14484246 0.083726004 0.31592295
-0.13397475 0.083947048 0.31481141
-0.12485346 0.084933318 0.31470367
-0.11493239 0.08489006 0.31404385
-0.10508325 0.084866755 0.31373274
-0.094897322 0.085009374 0.31263736
-0.084999017 0.08497341 0.31163177
-0.075107731 0.084776089 0.31117916
-0.065283626 0.086116172 0.31119788
-0.055486821 0.087481692 0.31091753
-0.045283865 0.088471301 0.31022418
-0.035813238 0.089150541 0.30999997
-0.028258046 0.08938849 0.31
-0.13125496 0.092597954 0.31879321
-0.12496376 0.092901245 0.31826696
-0.11453295 0.094304793 0.31772673
-0.10504723 0.094939925 0.31746885
-0.094997689 0.094760276 0.31625554
-0.084982954 0.09495341 0.31548464
-0.074965678 0.094765365 0.31482208
-0.065086149 0.09495388 0.31399962
-0.055043302 0.095027581 0.31346637
-0.044939883 0.095046617 0.31271344
-0.035028499 0.094916053 0.31200489
-0.025237814 0.094926983 0.3115814
-0.015329591 0.095933087 0.31109917
-0.0051805899 0.097111784 0.31097785
0.0052604522 0.097054027 0.31081644
0.01469222 0.097153366 0.31070352
0.023036188 0.097035684 0.31066206
-0.11055803 0.10006426 0.31900001
-0.10413497 0.10040096 0.31900012
-0.094092913 0.10191439 0.31897351
-0.084604837 0.10273188 0.31835201
-0.074704722 0.10418995 0.31801793
-0.065067589 0.10494664 0.31764957
-0.055048745 0.10517864 0.31704432
-0.04501681 0.10507181 0.31609574
-0.034866743 0.10499191 0.31533504
-0.024877528 0.1050337 0.31479818
-0.014863226 0.10502788 0.31435576
-0.0047591687 0.10503469 0.31371254
0.0051682508 0.10485108 0.31316376
0.01479973 0.10482324 0.31306207
0.022400547 0.10279881 0.3125172
-0.063846372 0.11034223 0.3190001
-0.054115869 0.11076663 0.31809092
-0.045838844 0.11041536 0.31729993
-0.034416728 0.11037771 0.31699997
-0.024520643 0.11054863 0.31612501
-0.015015833 0.11105923 0.31641179
-0.0053666849 0.11047977 0.31533337
0.0054719807 0.11056338 0.31499991
0.011839229 0.11070814 0.31480005
-0.13216849 0.096882842 0.320375
-0.12529655 0.097727887 0.32022643
-0.1175724 0.098743662 0.31999999
-0.13117363 0.10059748 0.32200003
-0.12418495 0.10201176 0.32186946
-0.11467814 0.10286708 0.32073495
-0.10471708 0.10386194 0.3204203
-0.095774412 0.10572808 0.32002255
-0.085879065 0.1070471 0.31999984
-0.077850327 0.10870906 0.32000002
