# .PCD v0.7 - Point Cloud Data file format
VERSION 0.7
FIELDS x y z
SIZE 4 4 4
TYPE F F F
COUNT 1 1 1
WIDTH 99
HEIGHT 1
VIEWPOINT 0 0 0 1 0 0 0
POINTS 99
DATA ascii
-0.15530452 0.019405127 0.30849999
-0.1442049 0.019658839 0.30830437
-0.13580319 0.019482838 0.30775002
-0.12405141 0.019958925 0.30900002
-0.11535441 0.019958925 0.30900002
-0.093827695 0.019911949 0.30827278
-0.085342214 0.019673271 0.30846161
-0.075063929 0.019941697 0.30873337
-0.065020472 0.019958923 0.30900002
-0.054910198 0.019958923 0.30900002
-0.048061308 0.019958923 0.30900002
-0.075039312 0.021560406 0.30386412
-0.064777963 0.021660723 0.30372828
-0.055056993 0.021862283 0.30384374
-0.045001395 0.021993974 0.30417529
-0.034979746 0.021893576 0.30453691
-0.024924211 0.022255607 0.30415896
-0.015061818 0.022417642 0.30372408
-0.0047352808 0.022374216 0.30446142
0.0049812505 0.022554306 0.30486816
0.015089571 0.022645421 0.30404013
0.02511142 0.023681968 0.30352193
-0.16062438 0.017392822 0.31275004
-0.15557332 0.01669115 0.31479013
-0.14552327 0.017835727 0.31136766
-0.13464862 0.017874693 0.31335449
-0.12484267 0.018208729 0.31226757
-0.11520772 0.018245503 0.31396437
-0.10482524 0.018079245 0.3148824
-0.094920665 0.01793614 0.3141138
-0.08480873 0.017779725 0.31451231
-0.07496722 0.017851658 0.314495
-0.065002158 0.018018225 0.3149671
-0.055014912 0.018328007 0.31442094
-0.04493174 0.018316839 0.31452623
-0.035035945 0.018383725 0.31568012
-0.024994869 0.018407332 0.31592107
-0.014742229 0.018454339 0.31561655
-0.004859529 0.018676497 0.31540984
0.0053264373 0.018654298 0.31632823
0.01485955 0.018809984 0.31587264
0.02413894 0.018939389 0.31605127
-0.16142574 0.020677902 0.31
-0.13066956 0.020023514 0.31
-0.1293608 0.020023514 0.31
-0.11267393 0.020023514 0.31
-0.10488639 0.020036431 0.31019995
-0.09925095 0.020088106 0.31100002
-0.042994875 0.020029971 0.31009999
-0.03482876 0.020040739 0.31026664
-0.024478909 0.020337632 0.31057686
-0.015213091 0.020408837 0.31089994
-0.0059181489 0.02030354 0.31095827
0.0052906969 0.020406246 0.3110345
0.014979636 0.020415301 0.31099996
0.0251645 0.020758331 0.3123824
-0.15499894 0.0094443616 0.32900003
-0.1606739 0.01335148 0.32550004
-0.15449394 0.013450742 0.32605723
-0.14487799 0.013849676 0.32819739
-0.13826375 0.014445341 0.32637498
-0.12467714 0.014658527 0.32753566
-0.11486976 0.014829639 0.32470658
-0.10511391 0.014514416 0.32447189
-0.095146514 0.014434002 0.32467431
-0.085022561 0.01443077 0.32389763
-0.075202033 0.014470213 0.32461044
-0.065005466 0.014584661 0.32447559
-0.055054035 0.01511591 0.32390895
-0.045021523 0.015101968 0.32438213
-0.035019729 0.015480466 0.32408217
-0.025003061 0.015473227 0.32471627
-0.0151311 0.015601959 0.32494667
-0.0048726508 0.015818529 0.32501122
0.0050703846 0.015898211 0.32479465
0.014825187 0.016096912 0.32496423
0.022973156 0.016721779 0.32385424
-0.15470202 0.0091080284 0.33661109
-0.13395272 0.0091392025 0.33828008
-0.1258648 0.0095964447 0.33844441
-0.1149599 0.0097293761 0.33892861
-0.10513505 0.0097137596 0.33838463
-0.098531738 0.0096969772 0.33780003
-0.15342459 0.011088028 0.33313042
-0.14255342 0.011653806 0.33680004
-0.13588233 0.011502964 0.33706132
-0.12483167 0.011734606 0.3333624
-0.11496882 0.01139476 0.33367249
-0.10510329 0.011344734 0.33343634
-0.095173925 0.01134592 0.33384737
-0.084954992 0.011327242 0.33348212
-0.07464736 0.011504903 0.33339393
-0.06479691 0.011517922 0.33352453
-0.05518426 0.011738743 0.33378261
-0.045004051 0.01205265 0.3333928
-0.035128221 0.012428966 0.3331551
-0.024966853 0.012749632 0.33387494
-0.015016198 0.012746929 0.33398253
-0.16488983 -0.0048824162 0.36133337
