# .PCD v0.7 - Point Cloud Data file format
VERSION 0.7
FIELDS x y z
SIZE 4 4 4
TYPE F F F
COUNT 1 1 1
WIDTH 1237
HEIGHT 1
VIEWPOINT 0 0 0 1 0 0 0
POINTS 1237
DATA ascii
-0.076570898 -0.074852653 -0.053847361
-0.075965628 -0.074562095 -0.053841133
-0.075604834 -0.073761486 -0.054447711
-0.07500007 -0.073471166 -0.054441489
-0.074517891 -0.072926387 -0.054741289
-0.073913373 -0.072636195 -0.054735068
-0.073431849 -0.072091989 -0.055034626
-0.072827592 -0.071801908 -0.055028409
-0.072099827 -0.071765609 -0.054716405
-0.071495317 -0.071475416 -0.054710183
-0.070890807 -0.071185224 -0.054703962
-0.070410535 -0.070641622 -0.055003528
-0.069930673 -0.070098475 -0.055302847
-0.069326669 -0.069808528 -0.05529663
-0.068722658 -0.069518574 -0.055290416
-0.068118647 -0.069228619 -0.055284198
-0.067514636 -0.068938665 -0.055277981
-0.066910625 -0.068648711 -0.055271763
-0.066306613 -0.068358764 -0.05526555
-0.065450177 -0.068573482 -0.05464796
-0.064845666 -0.06828329 -0.054641739
-0.064241149 -0.067993097 -0.054635517
-0.063763656 -0.067450821 -0.054935116
-0.063159391 -0.067160748 -0.054928895
-0.062555134 -0.066870682 -0.054922678
-0.061823092 -0.066832319 -0.054610629
-0.0609622 -0.067045942 -0.053991981
-0.06048568 -0.066503614 -0.054292094
-0.059880912 -0.066213302 -0.054285873
-0.059276145 -0.06592299 -0.054279648
-0.058671378 -0.065632671 -0.054273423
-0.058325298 -0.064840175 -0.05487914
-0.057591494 -0.064800963 -0.054567073
-0.056857083 -0.064761728 -0.054254748
-0.05612205 -0.064722456 -0.053942163
-0.055517033 -0.064432025 -0.053935938
-0.055042781 -0.063890785 -0.054236077
-0.054306995 -0.063851148 -0.05392348
-0.053570598 -0.063811481 -0.053610627
-0.052833583 -0.063771784 -0.053297509
-0.05222806 -0.0634811 -0.05329128
-0.051490173 -0.063441247 -0.052977897
-0.050618839 -0.063652478 -0.05235659
-0.049879357 -0.063612647 -0.052042425
-0.048737887 -0.06432794 -0.050801892
-0.047727197 -0.064792976 -0.049867194
-0.046984013 -0.064753495 -0.049550928
-0.045562353 -0.065980263 -0.047679145
-0.044679783 -0.066195153 -0.047048926
-0.041868724 -0.069993161 -0.042012978
-0.039860841 -0.072282061 -0.038828276
-0.038259342 -0.073806748 -0.036580887
-0.037074056 -0.074554481 -0.035287883
-0.085946739 -0.075389355 -0.056815021
-0.085461818 -0.074845821 -0.05711272
-0.084859565 -0.074556708 -0.057106521
-0.083428673 -0.07605055 -0.054967683
-0.081869692 -0.077810064 -0.052508857
-0.081143588 -0.077776171 -0.05219489
-0.080537297 -0.077485129 -0.05218865
-0.079931013 -0.077194087 -0.052182406
-0.079686932 -0.076133706 -0.053098619
-0.07944347 -0.075075977 -0.05401253
-0.078838699 -0.074785657 -0.054006308
-0.078233935 -0.074495345 -0.054000083
-0.077507824 -0.074460134 -0.05368739
-0.077145889 -0.073659942 -0.054293849
-0.076419629 -0.073624395 -0.053981412
-0.075936861 -0.073079556 -0.054281406
-0.075454488 -0.072535165 -0.05458115
-0.074850224 -0.072245091 -0.054574933
-0.074245974 -0.071955018 -0.054568712
-0.073764503 -0.071411327 -0.05486821
-0.073160499 -0.07112138 -0.054861996
-0.072556488 -0.070831418 -0.054855779
-0.071952477 -0.070541464 -0.054849561
-0.071348466 -0.070251517 -0.054843344
-0.07086841 -0.069708757 -0.055142604
-0.070388757 -0.069166452 -0.055441614
-0.069909498 -0.068624593 -0.055740383
-0.06918174 -0.068587027 -0.055429194
-0.068453379 -0.068549432 -0.055117749
-0.067849614 -0.068259604 -0.055111535
-0.067245856 -0.067969769 -0.055105321
-0.066642098 -0.067679942 -0.055099107
-0.065912373 -0.067641951 -0.05478739
-0.065308362 -0.067351997 -0.054781172
-0.064704351 -0.06706205 -0.054774959
-0.06410034 -0.066772096 -0.054768741
-0.063496329 -0.066482149 -0.054762524
-0.062892325 -0.066192195 -0.054756306
-0.06228831 -0.065902241 -0.054750092
-0.061300475 -0.066366531 -0.053825796
-0.060695708 -0.066076219 -0.053819567
-0.060090944 -0.065785907 -0.053813342
-0.059486181 -0.065495588 -0.053807117
-0.058881413 -0.065205276 -0.053800896
-0.058535155 -0.06441313 -0.054407004
-0.057930894 -0.064123064 -0.054400783
-0.057196926 -0.064083554 -0.054088522
-0.056592412 -0.063793361 -0.054082297
-0.055987898 -0.063503169 -0.054076076
-0.055383384 -0.063212976 -0.054069854
-0.054648049 -0.063173071 -0.053757321
-0.053780805 -0.063383728 -0.053137705
-0.053175535 -0.063093171 -0.053131472
-0.052570261 -0.062802613 -0.053125244
-0.051832829 -0.062762491 -0.052811924
-0.051094782 -0.06272234 -0.052498344
-0.050223116 -0.062932976 -0.051876634
-0.049216401 -0.063395284 -0.050945245
-0.048072863 -0.064110808 -0.049701829
-0.047330137 -0.064071052 -0.04938563
-0.045909949 -0.065295592 -0.047514215
-0.045164127 -0.065256208 -0.047196165
-0.044281222 -0.065470487 -0.046565536
-0.041328773 -0.069520816 -0.041209482
-0.039317731 -0.071808681 -0.03802
-0.037855167 -0.073071867 -0.036090683
-0.036952805 -0.073296033 -0.035441123
-0.084964544 -0.075948186 -0.054813795
-0.084242456 -0.075913645 -0.054501962
-0.082805574 -0.077415824 -0.052349247
-0.081960425 -0.077638745 -0.051727414
-0.081474125 -0.077090859 -0.052029107
-0.080868095 -0.076799937 -0.052022867
-0.080502756 -0.075996451 -0.052631728
-0.079897232 -0.075705774 -0.052625496
-0.079653494 -0.074648581 -0.053540006
-0.07904873 -0.07435827 -0.053533778
-0.078443959 -0.07406795 -0.053527553
-0.07796035 -0.073522918 -0.05382774
-0.077355832 -0.073232725 -0.053821519
-0.07687287 -0.072688274 -0.054121453
-0.076268613 -0.072398201 -0.054115236
-0.075664349 -0.072108127 -0.054109011
-0.075304404 -0.071310893 -0.054714363
-0.074578285 -0.071274415 -0.054402489
-0.074096888 -0.07073123 -0.054701935
-0.073493123 -0.070441395 -0.054695722
-0.072889365 -0.070151567 -0.054689508
-0.072285607 -0.06986174 -0.054683294
-0.071805365 -0.069319367 -0.054982495
-0.071325518 -0.068777442 -0.055281449
-0.070846066 -0.068235978 -0.055580154
-0.070243068 -0.067946509 -0.055573948
-0.069640063 -0.067657039 -0.055567741
-0.068912491 -0.067619085 -0.055256616
-0.068184316 -0.067581102 -0.054945223
-0.067705981 -0.067039907 -0.055244192
-0.0669773 -0.067001686 -0.054932799
-0.066248022 -0.066963427 -0.054621149
-0.065644264 -0.066673599 -0.054614931
-0.065040506 -0.066383764 -0.054608718
-0.064436741 -0.066093937 -0.054602504
-0.063832991 -0.065804102 -0.05459629
-0.063229226 -0.065514274 -0.054590076
-0.062625468 -0.065224439 -0.054583862
-0.06189407 -0.065185428 -0.054271933
-0.061162058 -0.065146387 -0.053959746
-0.060300976 -0.065358512 -0.053340811
-0.059696209 -0.0650682 -0.05333459
-0.059091441 -0.064777881 -0.053328365
-0.058745015 -0.063986093 -0.053934868
-0.058011383 -0.06394653 -0.05362241
-0.057406873 -0.063656338 -0.053616188
-0.056802358 -0.063366145 -0.053609967
-0.056197841 -0.063075952 -0.053603746
-0.05559333 -0.06278576 -0.053597521
-0.054858081 -0.062745675 -0.05328479
-0.054253314 -0.062455364 -0.053278569
-0.053385742 -0.062665418 -0.05265855
-0.053043783 -0.061874736 -0.053266115
-0.052043125 -0.062334564 -0.052338801
-0.051305164 -0.06229423 -0.052025024
-0.050699387 -0.06200343 -0.052018788
-0.049694113 -0.062464193 -0.051088355
-0.048552334 -0.063177556 -0.049846221
-0.047675978 -0.06338919 -0.049220461
-0.046392649 -0.064358599 -0.047660872
-0.045511894 -0.064571843 -0.047031432
-0.044629656 -0.064785451 -0.046400931
-0.043060515 -0.06627059 -0.044201549
-0.040927339 -0.068790928 -0.040722601
-0.038211249 -0.072373942 -0.035928234
-0.037168045 -0.072858043 -0.03495688
-0.036548283 -0.072560534 -0.034950502
-0.035501603 -0.073045492 -0.033976644
-0.083393924 -0.079372413 -0.049727958
-0.083264314 -0.078049615 -0.050957803
-0.082777269 -0.077501319 -0.051259942
-0.082290635 -0.076953493 -0.051561825
-0.081684604 -0.07666257 -0.051555589
-0.081318572 -0.075859196 -0.052164841
-0.080833152 -0.075312734 -0.052465968
-0.080227882 -0.075022176 -0.052459739
-0.079622611 -0.074731618 -0.05245351
-0.0791381 -0.074185863 -0.052754391
-0.078653991 -0.073640555 -0.053055022
-0.078291252 -0.072841376 -0.05366176
-0.077686995 -0.07255131 -0.053655535
-0.077446528 -0.071500249 -0.054566856
-0.076843016 -0.071210541 -0.054560643
-0.076361075 -0.070667841 -0.054859772
-0.075757816 -0.070378251 -0.054853566
-0.075032495 -0.070341416 -0.054542009
-0.074551307 -0.069799066 -0.054841146
-0.073948048 -0.069509476 -0.05483494
-0.073344797 -0.069219887 -0.054828729
-0.07261847 -0.069182575 -0.054517161
-0.07213828 -0.068640709 -0.054816309
-0.071781866 -0.067847677 -0.055420063
-0.071179114 -0.067558333 -0.055413861
-0.070700124 -0.067017823 -0.05571226
-0.069849476 -0.067230888 -0.055096589
-0.069495119 -0.06643936 -0.055699859
-0.068768099 -0.066400938 -0.055389047
-0.06816534 -0.066111587 -0.05538284
-0.067437463 -0.066073015 -0.055071764
-0.066583388 -0.066285469 -0.054455046
-0.065979883 -0.06599576 -0.054448832
-0.065376379 -0.065706044 -0.054442618
-0.064899206 -0.065165624 -0.0547418
-0.064169362 -0.065126628 -0.054430198
-0.063819431 -0.064336196 -0.055034522
-0.062835149 -0.064797759 -0.054112121
-0.062231392 -0.064507924 -0.054105908
-0.061499827 -0.064468615 -0.053793781
-0.060639385 -0.064680092 -0.053174965
-0.059906241 -0.064640798 -0.052862059
-0.059301477 -0.064350486 -0.052855834
-0.058954868 -0.063559055 -0.053462733
-0.058479778 -0.063018858 -0.053762697
-0.057875767 -0.062728904 -0.053756479
-0.057012301 -0.062938929 -0.053137634
-0.056537822 -0.062398765 -0.053437855
-0.055803273 -0.06235854 -0.053125191
-0.055068113 -0.062318284 -0.052812263
-0.054463346 -0.062027968 -0.052806038
-0.053595949 -0.062237673 -0.052185625
-0.053253815 -0.061447341 -0.052793588
-0.052253421 -0.061906636 -0.051865682
-0.051780134 -0.061365996 -0.052166935
-0.050909773 -0.06157532 -0.051545471
-0.049904764 -0.062035546 -0.050614443
-0.049031001 -0.062245864 -0.049990375
-0.048021525 -0.062707894 -0.049055438
-0.047009502 -0.063171096 -0.048118148
-0.045723695 -0.064140856 -0.046554927
-0.044977795 -0.064100988 -0.04623647
-0.043958087 -0.0645677 -0.045292065
-0.042247802 -0.066308461 -0.042772446
-0.040386762 -0.06831786 -0.039918214
-0.037807249 -0.071639374 -0.03543824
-0.036763523 -0.072122537 -0.034466255
-0.036001667 -0.07208544 -0.03413745
-0.035096556 -0.072309047 -0.03348539
-0.08385475 -0.080010526 -0.048329126
-0.083485529 -0.079201318 -0.048943382
-0.083116911 -0.078393467 -0.049556606
-0.082868427 -0.077329807 -0.050477646
-0.082381546 -0.076781817 -0.050779983
-0.082134388 -0.075721949 -0.051697951
-0.081648625 -0.075175546 -0.051999275
-0.08116328 -0.07462959 -0.052300345
-0.080438085 -0.074594431 -0.051986817
-0.079832815 -0.074303873 -0.051980589
-0.079348221 -0.073758289 -0.052281667
-0.078984752 -0.072958678 -0.052889299
-0.078742564 -0.071906686 -0.053801954
-0.078259632 -0.071363457 -0.054101519
-0.077777103 -0.070820689 -0.054400839
-0.077415995 -0.070025846 -0.055004939
-0.076813243 -0.069736503 -0.054998737
-0.076210476 -0.069447152 -0.054992534
-0.075364076 -0.069662333 -0.054376006
-0.074882939 -0.069120489 -0.054675087
-0.074279934 -0.068831027 -0.054668881
-0.073921889 -0.068038173 -0.055272508
-0.073073931 -0.068252079 -0.054656468
-0.072593957 -0.067711063 -0.054955311
-0.072114378 -0.067170486 -0.055253901
-0.07151188 -0.066881254 -0.055247702
-0.070909373 -0.066592023 -0.055241499
-0.070306867 -0.066302799 -0.055235296
-0.069704361 -0.066013567 -0.055229098
-0.069101863 -0.065724343 -0.055222895
-0.068499349 -0.065435112 -0.055216692
-0.06789685 -0.06514588 -0.055210494
-0.067043878 -0.065357395 -0.054594401
-0.066315226 -0.06531848 -0.054282866
-0.065711968 -0.065028891 -0.05427666
-0.065486833 -0.063988969 -0.055185687
-0.064884327 -0.063699737 -0.055179484
-0.064281821 -0.063410506 -0.055173285
-0.063425839 -0.063620575 -0.054557163
-0.062441073 -0.064081244 -0.053634163
-0.061837316 -0.063791409 -0.053627949
-0.061105587 -0.063751802 -0.053315625
-0.06037325 -0.063712165 -0.053003035
-0.0596403 -0.063672483 -0.052690189
-0.059293557 -0.062881954 -0.053296976
-0.058818523 -0.06234226 -0.053596877
-0.058085538 -0.062302046 -0.053284537
-0.057481524 -0.062012091 -0.053278323
-0.056877516 -0.061722141 -0.053272106
-0.055882912 -0.062181205 -0.052345958
-0.055278145 -0.061890889 -0.052339733
-0.054673377 -0.061600573 -0.052333508
-0.05406861 -0.061310261 -0.052327286
-0.053463843 -0.061019946 -0.052321061
-0.052463714 -0.061478704 -0.051392559
-0.051990341 -0.060938247 -0.051694013
-0.051252667 -0.060897347 -0.051380094
-0.050248507 -0.061356526 -0.050449248
-0.04924183 -0.06181686 -0.049516063
-0.048366781 -0.062027175 -0.048890557
-0.047355622 -0.06248932 -0.047953449
-0.046206549 -0.063204825 -0.046702392
-0.045189682 -0.063669816 -0.045759767
-0.044170242 -0.064135984 -0.044814754
-0.043148223 -0.064603336 -0.043867353
-0.041847724 -0.065581039 -0.042287212
-0.039985158 -0.067587666 -0.039431129
-0.036978763 -0.071684547 -0.033982009
-0.036217 -0.071647264 -0.033652999
-0.035312075 -0.071870491 -0.033000521
-0.033975802 -0.072878055 -0.031374026
-0.084436044 -0.080390826 -0.047238134
-0.084066018 -0.07958062 -0.04785382
-0.083696619 -0.078771777 -0.048468474
-0.083088808 -0.078479998 -0.04846222
-0.082840145 -0.07741534 -0.049385402
-0.0825921 -0.076353349 -0.050306272
-0.082344688 -0.07529401 -0.051224831
-0.081858844 -0.074747793 -0.051526353
-0.081373401 -0.074202023 -0.051827621
-0.080648296 -0.074166678 -0.051513892
-0.080043025 -0.07387612 -0.051507659
-0.079437755 -0.073585562 -0.051501431
-0.079435669 -0.072023496 -0.053030193
-0.079193115 -0.070973538 -0.053941909
-0.078589857 -0.070683949 -0.053935703
-0.078348674 -0.069636978 -0.054845154
-0.07774616 -0.069347747 -0.054838955
-0.077143662 -0.069058515 -0.054832753
-0.076541156 -0.068769284 -0.05482655
-0.075695373 -0.068983808 -0.054210141
-0.075336143 -0.068190835 -0.054814149
-0.074733645 -0.067901604 -0.054807946
-0.074131139 -0.067612372 -0.054801747
-0.073528633 -0.067323141 -0.054795545
-0.072926134 -0.067033909 -0.054789346
-0.07232362 -0.066744693 -0.054783143
-0.071844362 -0.066204734 -0.05508168
-0.071242109 -0.065915629 -0.055075482
-0.070639856 -0.065626517 -0.055069286
-0.070161492 -0.065087259 -0.055367582
-0.069559485 -0.064798273 -0.055361386
-0.068957478 -0.064509287 -0.055355191
-0.068106093 -0.064720087 -0.054739732
-0.067503594 -0.064430855 -0.054733533
-0.066901088 -0.064141624 -0.054727331
-0.066298582 -0.0638524 -0.054721128
-0.066073 -0.062815234 -0.055628471
-0.065471247 -0.06252636 -0.055622276
-0.064743452 -0.062486362 -0.055311818
-0.063888572 -0.062695481 -0.054696325
-0.0629052 -0.063154615 -0.053774264
-0.062174521 -0.06311477 -0.053462256
-0.061443239 -0.063074902 -0.053149994
-0.060839482 -0.062785067 -0.053143781
-0.060107339 -0.062745042 -0.052831255
-0.059631962 -0.062205408 -0.053131353
-0.059028205 -0.061915576 -0.053125136
-0.058295306 -0.061875183 -0.052812599
-0.057691295 -0.061585233 -0.052806385
-0.057087284 -0.061295282 -0.052800167
-0.05609294 -0.061753809 -0.051873427
-0.05574901 -0.060964543 -0.052481148
-0.054883413 -0.061173178 -0.051860981
-0.054278646 -0.060882866 -0.051854756
-0.053673878 -0.060592551 -0.051848531
-0.052805819 -0.060801052 -0.051227316
-0.052200548 -0.060510494 -0.051221088
-0.051462963 -0.060469419 -0.050906975
-0.050459068 -0.060928058 -0.049975533
-0.049452651 -0.061387856 -0.049041755
-0.048443701 -0.061848808 -0.048105627
-0.047566887 -0.062059414 -0.047478147
-0.046688594 -0.062270373 -0.046849608
-0.045537438 -0.062986113 -0.045595642
-0.044518866 -0.063451223 -0.044650823
-0.043497719 -0.06391751 -0.043703612
-0.042336304 -0.064639054 -0.042439029
-0.041170958 -0.065363042 -0.041170169
-0.038182128 -0.069431581 -0.035749909
-0.036716025 -0.070689224 -0.033813946
-0.035527591 -0.071431935 -0.032515652
-0.034478251 -0.071916074 -0.031537414
-0.033138469 -0.072925031 -0.029905682
-0.08549393 -0.079734758 -0.047391038
-0.084766597 -0.079701535 -0.047073733
-0.08427728 -0.079150714 -0.047378514
-0.08378838 -0.078600347 -0.047683042
-0.083299898 -0.078050449 -0.047987312
-0.083050966 -0.076986328 -0.048911091
-0.082683183 -0.076181345 -0.049523573
-0.082554989 -0.074866086 -0.050751708
-0.082427211 -0.073555216 -0.051975742
-0.081822693 -0.073265024 -0.051969521
-0.08097849 -0.073484018 -0.051348668
-0.080373473 -0.07319358 -0.051342443
-0.080129348 -0.072140411 -0.052257791
-0.07964544 -0.071596637 -0.052558254
-0.079402626 -0.070547208 -0.053470563
-0.07928057 -0.069248423 -0.0546855
-0.078678317 -0.068959311 -0.054679301
-0.078076057 -0.068670206 -0.054673102
-0.077473812 -0.068381093 -0.054666903
-0.076750405 -0.06834349 -0.054355789
-0.076147899 -0.068054259 -0.054349586
-0.075545393 -0.067765035 -0.054343387
-0.074942887 -0.067475811 -0.054337185
-0.074340388 -0.067186579 -0.054330982
-0.073737875 -0.066897348 -0.054324783
-0.073135376 -0.066608116 -0.054318581
-0.072655775 -0.066068232 -0.054617312
-0.072176576 -0.06552878 -0.054915801
-0.071574569 -0.065239795 -0.054909602
-0.071096018 -0.064700909 -0.055207845
-0.070494264 -0.06441205 -0.05520165
-0.069768555 -0.064372823 -0.054891013
-0.069166556 -0.064083837 -0.054884817
-0.068439998 -0.064044461 -0.05457392
-0.067837745 -0.063755356 -0.054567721
-0.067235492 -0.063466251 -0.054561526
-0.066883735 -0.062678836 -0.05516449
-0.066407323 -0.062141247 -0.055462498
-0.065805823 -0.061852496 -0.055456307
-0.065078475 -0.061812229 -0.055145908
-0.064224221 -0.062020708 -0.054530531
-0.063368544 -0.062229529 -0.05391413
-0.062511452 -0.062438697 -0.053296708
-0.061908193 -0.062149107 -0.053290498
-0.061049163 -0.062358387 -0.05267204
-0.060445406 -0.062068556 -0.052665826
-0.059841644 -0.061778724 -0.052659612
-0.05923789 -0.061488893 -0.052653395
-0.058505077 -0.061448324 -0.052340664
-0.057771653 -0.061407723 -0.052027669
-0.057167392 -0.061117649 -0.052021451
-0.056302976 -0.061326414 -0.051400896
-0.05582859 -0.060786698 -0.05170197
-0.055093441 -0.060745783 -0.05138845
-0.054488674 -0.060455471 -0.051382225
-0.05388391 -0.060165156 -0.051376
-0.053016029 -0.060373303 -0.050754394
-0.052410755 -0.060082745 -0.050748166
-0.05167326 -0.060041483 -0.050433852
-0.050935142 -0.060000196 -0.050119277
-0.049796876 -0.060708541 -0.048877083
-0.048788782 -0.061168447 -0.047941141
-0.047778152 -0.061629508 -0.047002841
-0.046900041 -0.061840106 -0.046373904
-0.0458849 -0.062302984 -0.045431655
-0.044867199 -0.062767036 -0.044487026
-0.043710053 -0.063485421 -0.043225903
-0.042686589 -0.063952342 -0.042275686
-0.041936569 -0.06391225 -0.041954208
-0.040215079 -0.065655209 -0.039416861
-0.037637841 -0.068956576 -0.034939628
-0.036453519 -0.06969475 -0.033646032
-0.035122551 -0.07069549 -0.032024398
-0.033785872 -0.071700521 -0.030395811
-0.087312892 -0.082292169 -0.04475667
-0.086821273 -0.081738859 -0.045063194
-0.086211421 -0.081446104 -0.04505692
-0.086550027 -0.079079777 -0.047543686
-0.085705191 -0.079304844 -0.046915732
-0.084977955 -0.079271451 -0.04659823
-0.084488548 -0.078720808 -0.046903208
-0.083999567 -0.078170627 -0.047207937
-0.083510987 -0.077620901 -0.047512405
-0.083261788 -0.076557331 -0.048436783
-0.082893826 -0.075752698 -0.049049664
-0.082765274 -0.074438155 -0.050278589
-0.082637154 -0.073128 -0.051503409
-0.082151994 -0.072583586 -0.051804315
-0.08154773 -0.07229352 -0.05179809
-0.080943465 -0.072003439 -0.051791873
-0.080459215 -0.071459725 -0.052092534
-0.080215387 -0.070410475 -0.05300542
-0.080091983 -0.069111906 -0.054221135
-0.079609685 -0.068571202 -0.054519784
-0.079007693 -0.068282209 -0.054513589
-0.078285217 -0.068244584 -0.054202538
-0.077682965 -0.067955472 -0.054196339
-0.077080712 -0.067666367 -0.05419014
-0.076478451 -0.067377262 -0.054183941
-0.075754635 -0.067339242 -0.053872623
-0.075152136 -0.06705001 -0.053866424
-0.07454963 -0.066760778 -0.053860221
-0.073947132 -0.066471547 -0.053854018
-0.073467188 -0.065931715 -0.054152947
-0.072987646 -0.065392323 -0.054451626
-0.072508506 -0.064853385 -0.054750059
-0.071906753 -0.064564519 -0.054743864
-0.071428262 -0.064026147 -0.055042051
-0.070703246 -0.063986786 -0.054731477
-0.070101492 -0.063697912 -0.054725282
-0.069499739 -0.063409045 -0.05471909
-0.06877362 -0.063369408 -0.054408252
-0.068296231 -0.062831305 -0.0547067
-0.067569621 -0.062791429 -0.054395858
-0.067092717 -0.062253572 -0.054694314
-0.06661623 -0.061716154 -0.054992519
-0.066014722 -0.061427407 -0.054986328
-0.065287463 -0.061386961 -0.054675732
-0.064559594 -0.06134649 -0.054364879
-0.063704558 -0.061554663 -0.053748596
-0.062975124 -0.061514206 -0.053436968
-0.062372372 -0.061224855 -0.053430766
-0.061258845 -0.061931703 -0.052200295
-0.060655087 -0.061641872 -0.052194081
-0.060051326 -0.061352044 -0.052187867
-0.059447572 -0.061062209 -0.052181654
-0.058714844 -0.061021466 -0.051868726
-0.05798151 -0.060980681 -0.051555533
-0.057247568 -0.060939871 -0.051242083
-0.056513008 -0.060899023 -0.050928373
-0.05590824 -0.060608707 -0.050922144
-0.055042051 -0.060817223 -0.050300159
-0.054436781 -0.060526665 -0.05029393
-0.05383151 -0.060236108 -0.050287701
-0.053226236 -0.05994555 -0.050281473
-0.05248908 -0.059904236 -0.049966965
-0.051751301 -0.059862886 -0.049652196
-0.051145528 -0.059572086 -0.049645957
-0.050007612 -0.060279712 -0.048402969
-0.048999783 -0.060739078 -0.047466431
-0.048258074 -0.060697939 -0.047149558
-0.047381099 -0.06090758 -0.046521276
-0.046367422 -0.061368898 -0.045580003
-0.045215238 -0.062083423 -0.044323374
-0.043922391 -0.063053347 -0.04274819
-0.042899191 -0.063519716 -0.04179737
-0.042149261 -0.063479438 -0.041475691
-0.040567447 -0.064965747 -0.039254244
-0.039535206 -0.065436721 -0.038294539
-0.036951706 -0.0687396 -0.033806778
-0.036049344 -0.068959869 -0.033155821
-0.034574624 -0.070218995 -0.031209053
-0.033092305 -0.071484603 -0.02925225
-0.087524779 -0.081860989 -0.044279963
-0.087387688 -0.08052846 -0.045524132
-0.08725106 -0.079200394 -0.04676412
-0.086761117 -0.078650236 -0.047068778
-0.085797884 -0.079133503 -0.046128985
-0.085189305 -0.078841373 -0.046122722
-0.084699817 -0.078290902 -0.046427906
-0.084210739 -0.0777409 -0.046732832
-0.08372207 -0.07719136 -0.047037497
-0.08347261 -0.076128319 -0.047962472
-0.083342984 -0.074812047 -0.049194239
-0.083213791 -0.073500179 -0.050421897
-0.082966112 -0.072446622 -0.051338397
-0.082481019 -0.071902722 -0.051639244
-0.081996322 -0.071359277 -0.051939838
-0.081392564 -0.071069442 -0.051933624
-0.081267096 -0.069768704 -0.053152129
-0.080903396 -0.068975404 -0.053756766
-0.08042077 -0.068434745 -0.054055609
-0.079938538 -0.067894548 -0.054354206
-0.079336785 -0.067605674 -0.054348011
-0.078614756 -0.067567781 -0.054037023
-0.07801275 -0.067278795 -0.054030824
-0.07741075 -0.066989809 -0.054024629
-0.077050701 -0.066199802 -0.054627787
-0.076328017 -0.066161335 -0.054317042
-0.075483106 -0.066373423 -0.053700976
-0.074880861 -0.06608431 -0.053694777
-0.074400723 -0.065544859 -0.05399365
-0.073920995 -0.065005861 -0.054292265
-0.073563993 -0.064217821 -0.054894954
-0.072717488 -0.064428121 -0.054279879
-0.072115734 -0.064139254 -0.054273687
-0.071513988 -0.06385038 -0.054267496
-0.070912234 -0.063561514 -0.054261301
-0.070434153 -0.06302356 -0.054559685
-0.069708727 -0.062983781 -0.054248914
-0.069106974 -0.062694915 -0.054242719
-0.06850522 -0.062406041 -0.054236528
-0.067903467 -0.062117171 -0.054230332
-0.067551441 -0.061331533 -0.054833069
-0.066825129 -0.061291065 -0.054522537
-0.066098198 -0.061250567 -0.054211751
-0.065370671 -0.061210033 -0.053900704
-0.064768672 -0.060921047 -0.053894509
-0.0639138 -0.06112887 -0.053277835
-0.063311301 -0.060839638 -0.053271633
-0.062581703 -0.060798887 -0.052959807
-0.061851505 -0.060758095 -0.052647725
-0.060992785 -0.06096613 -0.052028988
-0.060261007 -0.060925357 -0.051716127
-0.059528627 -0.060884558 -0.051403005
-0.058795631 -0.060843721 -0.051089618
-0.058191366 -0.060553648 -0.051083397
-0.057327803 -0.06076194 -0.050462067
-0.056592971 -0.060721003 -0.050147895
-0.055857528 -0.060680028 -0.049833465
-0.055252258 -0.06038947 -0.049827237
-0.054646984 -0.060098913 -0.049821008
-0.054041713 -0.059808359 -0.049814776
-0.053436443 -0.059517801 -0.049808543
-0.052567463 -0.059725575 -0.049185108
-0.051829409 -0.059684135 -0.048869882
-0.050825138 -0.060142174 -0.047935106
-0.05008512 -0.060100839 -0.047618825
-0.049210779 -0.060309716 -0.046991725
-0.04846916 -0.060268398 -0.046674654
-0.047592364 -0.060477678 -0.046045966
-0.046714097 -0.060687311 -0.045416228
-0.045562979 -0.061400387 -0.044159852
-0.04454444 -0.061863486 -0.043213215
-0.043386266 -0.06258066 -0.04194941
-0.042499624 -0.062793218 -0.04131275
-0.041058145 -0.064022288 -0.039408956
-0.040027402 -0.064491659 -0.03845026
-0.038994033 -0.064962246 -0.037489124
-0.036406197 -0.068263695 -0.032994628
-0.035360675 -0.068742521 -0.032019511
-0.033595942 -0.070523001 -0.029417597
-0.032253109 -0.071529821 -0.027779905
-0.087500252 -0.081950851 -0.043176059
-0.087481201 -0.080357417 -0.044735808
-0.087462232 -0.078770667 -0.046289016
-0.086854175 -0.078478768 -0.046282757
-0.086009234 -0.078703426 -0.045653481
-0.085400656 -0.078411281 -0.045647215
-0.085029982 -0.077603072 -0.046263982
-0.08442191 -0.077311181 -0.046257723
-0.084052369 -0.076504573 -0.046873458
-0.083921663 -0.075186566 -0.048108082
-0.083672479 -0.074128263 -0.049029779
-0.083423913 -0.073072605 -0.049949169
-0.083294801 -0.071765818 -0.051173523
-0.082809769 -0.071222425 -0.05147431
-0.082444176 -0.070426591 -0.05208135
-0.082079187 -0.069632083 -0.052687377
-0.081714809 -0.068838887 -0.053292401
-0.08123184 -0.068298295 -0.053591434
-0.080749281 -0.06775815 -0.053890221
-0.080267124 -0.067218453 -0.054188762
-0.079545766 -0.06718041 -0.053877834
-0.078944013 -0.066891544 -0.053871643
-0.078342259 -0.066602677 -0.053865448
-0.0778611 -0.066063456 -0.054163996
-0.077500977 -0.065274864 -0.054766539
-0.076899968 -0.064986356 -0.054760352
-0.076298967 -0.064697847 -0.054754168
-0.075333498 -0.06515833 -0.053834479
-0.074853577 -0.064619713 -0.054133043
-0.074252076 -0.064330965 -0.054126851
-0.073772803 -0.063792907 -0.054425169
-0.073171556 -0.063504279 -0.054418981
-0.072447561 -0.063464716 -0.054108277
-0.071846053 -0.063175969 -0.054102086
-0.071367793 -0.062638395 -0.054400414
-0.070766531 -0.062349766 -0.054394227
-0.069917709 -0.062558517 -0.053778738
-0.069315955 -0.062269647 -0.053772543
-0.068714201 -0.061980773 -0.053766351
-0.068361513 -0.061195247 -0.054369472
-0.067760259 -0.060906619 -0.054363281
-0.066908941 -0.06111417 -0.053747769
-0.066181749 -0.061073583 -0.053436529
-0.065453954 -0.061032958 -0.053125031
-0.064725555 -0.060992301 -0.052813273
-0.064123049 -0.060703073 -0.05280707
-0.063520543 -0.060413841 -0.052800871
-0.062791042 -0.060372911 -0.052488849
-0.062060926 -0.060331948 -0.052176572
-0.061330203 -0.060290948 -0.051864028
-0.060470693 -0.060498677 -0.051244382
-0.059738394 -0.060457695 -0.050931066
-0.059005484 -0.06041668 -0.050617483
-0.058271971 -0.060375631 -0.050303642
-0.057537839 -0.060334545 -0.049989536
-0.056803092 -0.060293425 -0.04967517
-0.056067735 -0.060252275 -0.049360543
-0.055462465 -0.059961721 -0.049354311
-0.054857194 -0.05967116 -0.049348082
-0.054383017 -0.059131682 -0.049650259
-0.053646654 -0.059090044 -0.049335621
-0.052645911 -0.059546769 -0.048402604
-0.051907588 -0.059505235 -0.048086915
-0.050902989 -0.059963241 -0.047150765
-0.050162695 -0.059921812 -0.046834022
-0.049288057 -0.060130626 -0.046206001
-0.04868025 -0.059838854 -0.046199746
-0.047803629 -0.060047772 -0.045570664
-0.046925541 -0.060257044 -0.044940524
-0.045910429 -0.060717922 -0.043996468
-0.044892762 -0.061179969 -0.043050025
-0.043735661 -0.061895683 -0.041786477
-0.042712227 -0.062360588 -0.040834438
-0.0416862 -0.062826671 -0.039879981
-0.040240817 -0.064057387 -0.037970118
-0.039626308 -0.063762397 -0.037963796
-0.037609734 -0.066023797 -0.03476321
-0.035860222 -0.067787379 -0.032181785
-0.034813553 -0.068265811 -0.031205207
-0.032902211 -0.07030607 -0.028273195
-0.031846326 -0.070790209 -0.027286539
-0.087830491 -0.081258871 -0.043012884
-0.087574795 -0.080186233 -0.043946825
-0.087437734 -0.078857623 -0.045190506
-0.086947307 -0.078307152 -0.04549608
-0.086338989 -0.078015126 -0.045489814
-0.085967675 -0.077207595 -0.046106454
-0.085478477 -0.07665851 -0.046411257
-0.08487092 -0.076366857 -0.046405002
-0.084501304 -0.075561717 -0.0470201
-0.08425118 -0.074502051 -0.047943935
-0.084001683 -0.073445044 -0.048865456
-0.083752818 -0.072390676 -0.049784668
-0.083623208 -0.071085572 -0.051008787
-0.08301945 -0.070795737 -0.051002569
-0.082653679 -0.070000261 -0.05161
-0.082526222 -0.068702377 -0.052828033
-0.082042925 -0.068161845 -0.053127263
-0.081679024 -0.067370854 -0.053731162
-0.081196681 -0.066831544 -0.054029644
-0.080595419 -0.066542916 -0.054023456
-0.079754762 -0.066755146 -0.053407658
-0.079273008 -0.066215865 -0.053706396
-0.0786715 -0.065927118 -0.053700205
-0.078310706 -0.065138638 -0.054303136
-0.077830151 -0.064600699 -0.054601133
-0.077229396 -0.064312309 -0.054594949
-0.076507688 -0.064273112 -0.054284576
-0.075906686 -0.063984603 -0.054278392
-0.075305678 -0.063696094 -0.054272205
-0.074460976 -0.063905872 -0.053656872
-0.07398162 -0.063367993 -0.053955384
-0.073380366 -0.063079372 -0.053949196
-0.072779104 -0.062790737 -0.053943004
-0.072177857 -0.062502109 -0.053936817
-0.071576603 -0.06221348 -0.053930629
-0.070975341 -0.061924849 -0.053924438
-0.070374094 -0.061636224 -0.05391825
-0.069648944 -0.061595883 -0.053607341
-0.06892319 -0.061555512 -0.053296175
-0.068570331 -0.060770337 -0.053899683
-0.067844428 -0.060729638 -0.053588767
-0.067117929 -0.060688905 -0.053277593
-0.06639082 -0.06064814 -0.052966159
-0.065663114 -0.060607336 -0.052654464
-0.064934798 -0.060566507 -0.052342515
-0.064332299 -0.060277276 -0.052336313
-0.063729793 -0.059988044 -0.05233011
-0.063127287 -0.059698816 -0.052323911
-0.062270343 -0.059905797 -0.051705416
-0.06153971 -0.059864622 -0.051392682
-0.060552172 -0.060320787 -0.050465338
-0.059819605 -0.060279712 -0.050151564
-0.059215344 -0.059989639 -0.050145347
-0.058352634 -0.060197465 -0.049523231
-0.057747867 -0.05990715 -0.049517006
-0.0571431 -0.059616838 -0.049510784
-0.056277942 -0.059824523 -0.048887618
-0.055672672 -0.059533965 -0.048881389
-0.055067401 -0.059243407 -0.048875157
-0.054462127 -0.058952853 -0.048868928
-0.053725488 -0.058911122 -0.048553832
-0.052724428 -0.059367809 -0.047619443
-0.051720861 -0.059825644 -0.046682701
-0.051113814 -0.059534237 -0.046676453
-0.050373606 -0.059492629 -0.046359513
-0.049499147 -0.059701085 -0.045731094
-0.048623215 -0.059909884 -0.04510162
-0.047880407 -0.059868347 -0.044783358
-0.046866935 -0.060328543 -0.043839496
-0.046122141 -0.060287114 -0.043520164
-0.045104738 -0.060748614 -0.04257312
-0.043947998 -0.061463606 -0.041308764
-0.043062203 -0.061675128 -0.04067184
-0.042037051 -0.062140144 -0.039717581
-0.040593173 -0.063368589 -0.037808113
-0.039839726 -0.063328117 -0.037483655
-0.03838595 -0.064563245 -0.03556281
-0.036642071 -0.066318832 -0.032988515
-0.035313781 -0.067310654 -0.031368248
-0.034122944 -0.068047583 -0.030065767
-0.032207288 -0.070088759 -0.027126826
-0.088888176 -0.080600418 -0.043169726
-0.088278331 -0.080307655 -0.043163452
-0.087786503 -0.079755425 -0.043470521
-0.087531194 -0.078686029 -0.044402707
-0.087040521 -0.078135394 -0.044708736
-0.086550258 -0.077585228 -0.045014512
-0.086297028 -0.076520801 -0.045942802
-0.085807897 -0.075972229 -0.046247546
-0.085319176 -0.07542412 -0.04655204
-0.084949493 -0.074620448 -0.047166497
-0.084580429 -0.07381811 -0.047779925
-0.084330626 -0.0727624 -0.048701268
-0.083962843 -0.071963288 -0.049312137
-0.083832882 -0.070658892 -0.050537042
-0.083466448 -0.069863528 -0.051144861
-0.083219171 -0.068817571 -0.052057792
-0.082735382 -0.068276763 -0.052357465
-0.082251988 -0.067736395 -0.052656893
-0.081887923 -0.066945769 -0.053261183
-0.081286423 -0.066657022 -0.053254992
-0.080804236 -0.066118002 -0.053553674
-0.080322452 -0.065579429 -0.053852104
-0.079721443 -0.06529092 -0.053845916
-0.079000473 -0.06525211 -0.053535108
-0.078639552 -0.064464524 -0.054137919
-0.078038789 -0.064176142 -0.054131735
-0.077558547 -0.063638814 -0.05442968
-0.076716416 -0.063848376 -0.053814989
-0.076115407 -0.063559867 -0.053808801
-0.075514406 -0.063271351 -0.053802617
-0.074669875 -0.063480787 -0.05318689
-0.074434251 -0.062445797 -0.054094635
-0.073589183 -0.062654451 -0.053479407
-0.073110379 -0.062117316 -0.05377787
-0.072386667 -0.062077194 -0.053467032
-0.07190837 -0.061540298 -0.053765498
-0.071184158 -0.061499938 -0.053454656
-0.070582904 -0.061211307 -0.053448468
-0.06998165 -0.060922679 -0.053442277
-0.069256335 -0.060882047 -0.053131167
-0.068779133 -0.060345422 -0.053429902
-0.068053328 -0.060304545 -0.053118791
-0.06745182 -0.060015798 -0.0531126
-0.066474527 -0.060470831 -0.052190099
-0.065872274 -0.060181722 -0.0521839
-0.06514404 -0.06014071 -0.051871751
-0.064541541 -0.059851479 -0.051865552
-0.063939035 -0.059562251 -0.051859349
-0.06308277 -0.059769116 -0.05124047
-0.062352475 -0.059727881 -0.050927538
-0.061621569 -0.059686616 -0.05061435
-0.060761943 -0.059893925 -0.049993403
-0.059900884 -0.060101584 -0.049371421
-0.059296373 -0.059811391 -0.049365196
-0.058562666 -0.059770074 -0.0490507
-0.057957903 -0.059479754 -0.049044479
-0.057353135 -0.059189443 -0.049038254
-0.056618314 -0.059147846 -0.048723493
-0.055882879 -0.059106216 -0.048408464
-0.055146832 -0.059064548 -0.048093174
-0.054672338 -0.0585251 -0.048396003
-0.05380439 -0.058732048 -0.047771391
-0.052803013 -0.059188701 -0.046835624
-0.051931683 -0.059396639 -0.046208393
-0.051324639 -0.059105232 -0.046202146
-0.050584521 -0.059063442 -0.045885004
-0.049576573 -0.059521664 -0.04494451
-0.04883448 -0.059479982 -0.044626318
-0.047957256 -0.059688773 -0.043995384
-0.047078557 -0.059897918 -0.043363392
-0.046198376 -0.060107414 -0.042730335
-0.045316715 -0.060317263 -0.042096213
-0.044160333 -0.06103152 -0.040831055
-0.043274719 -0.061242685 -0.040193725
-0.042525265 -0.061201461 -0.039871506
-0.041360728 -0.061919332 -0.038598835
-0.04005314 -0.062893838 -0.037003513
-0.038739994 -0.063872479 -0.035401411
-0.037139248 -0.065368198 -0.033149548
-0.035528928 -0.06687285 -0.03088421
-0.034624193 -0.067091808 -0.030229921
-0.033287589 -0.068088256 -0.028598884
-0.089217417 -0.079909883 -0.043006763
-0.088607818 -0.079617247 -0.043000489
-0.087998211 -0.079324618 -0.042994212
-0.08738862 -0.079031974 -0.042987943
-0.087251872 -0.077705309 -0.044233229
-0.086879641 -0.076897696 -0.04485118
-0.086744085 -0.075577937 -0.046090227
-0.086137049 -0.075286523 -0.046083976
-0.085766681 -0.074482962 -0.046698827
-0.085396931 -0.073680744 -0.047312647
-0.085027799 -0.072879858 -0.047925446
-0.084540829 -0.072334647 -0.048228346
-0.084409803 -0.071028538 -0.049456075
-0.084397376 -0.069474399 -0.050986547
-0.0839127 -0.068932861 -0.051286913
-0.083665073 -0.06788893 -0.052198909
-0.083063073 -0.067599945 -0.052192714
-0.082579739 -0.067060091 -0.052492086
-0.081977986 -0.066771217 -0.052485891
-0.081495315 -0.066231936 -0.052785013
-0.081013046 -0.065693095 -0.053083885
-0.080531172 -0.065154694 -0.053382512
-0.079930171 -0.064866185 -0.053376328
-0.079329163 -0.064577676 -0.05337014
-0.078848191 -0.064039961 -0.053668521
-0.078247428 -0.063751578 -0.053662341
-0.077767104 -0.063214429 -0.05396048
-0.076925144 -0.063423641 -0.053345393
-0.076445162 -0.062886409 -0.053643793
-0.075844407 -0.06259802 -0.053637609
-0.075243652 -0.062309626 -0.053631425
-0.074642889 -0.062021237 -0.053625241
-0.073920116 -0.061981089 -0.053314466
-0.073441379 -0.061444458 -0.053612873
-0.072718099 -0.061404072 -0.053302094
-0.072117098 -0.061115563 -0.05329591
-0.071392968 -0.061075024 -0.052984867
-0.070791714 -0.060786396 -0.05297868
-0.070190459 -0.060497768 -0.052972492
-0.069465235 -0.060456954 -0.052661192
-0.068863735 -0.060168207 -0.052655
-0.068262219 -0.059879459 -0.052648809
-0.067660719 -0.059590708 -0.052642617
-0.066683687 -0.060045209 -0.051719531
-0.065955795 -0.060004141 -0.051407192
-0.0652273 -0.05996304 -0.051094588
-0.064498201 -0.059921902 -0.050781731
-0.063895196 -0.059632435 -0.050775524
-0.063038178 -0.059839528 -0.050155226
-0.062434673 -0.05954982 -0.050149016
-0.061575726 -0.059757017 -0.049527679
-0.060971715 -0.059467062 -0.049521465
-0.06011083 -0.059674367 -0.048899084
-0.059506312 -0.059384175 -0.048892863
-0.058772698 -0.059342679 -0.048578173
-0.058167931 -0.059052359 -0.048571948
-0.057563167 -0.058762047 -0.048565723
-0.056828436 -0.058720272 -0.048250765
-0.056093086 -0.058678463 -0.047935538
-0.055357125 -0.058636621 -0.047620051
-0.054620549 -0.058594741 -0.047304302
-0.05375183 -0.058801919 -0.046678249
-0.052881662 -0.059009444 -0.046051152
-0.052142505 -0.058967635 -0.045734081
-0.051535461 -0.058676228 -0.045727834
-0.050795432 -0.058634259 -0.045410495
-0.049654063 -0.059342094 -0.044157274
-0.049045745 -0.059050076 -0.044151008
-0.048168696 -0.059258506 -0.043519679
-0.047290176 -0.05946729 -0.042887285
-0.046410177 -0.059676424 -0.04225383
-0.045664568 -0.059634682 -0.041933563
-0.044372667 -0.060599443 -0.040353343
-0.043487232 -0.060810238 -0.03971561
-0.042737868 -0.060768832 -0.03939319
-0.042125694 -0.060474966 -0.039386891
-0.04054448 -0.061951734 -0.037160192
-0.039093737 -0.063182309 -0.035240155
-0.037494726 -0.064675324 -0.032988764
-0.035744075 -0.066435046 -0.030400172
-0.034982111 -0.066395529 -0.03006977
-0.034076519 -0.066614173 -0.029414505
-0.090155713 -0.079512432 -0.042850208
-0.089897521 -0.078443795 -0.043782782
-0.088937029 -0.078927413 -0.042837661
-0.088209927 -0.078893803 -0.042517912
-0.087600328 -0.078601167 -0.042511635
-0.08734525 -0.077533223 -0.043445028
-0.08709082 -0.076467969 -0.044376075
-0.086954907 -0.075148925 -0.045615915
-0.086347871 -0.074857518 -0.045609664
-0.08609543 -0.073798738 -0.046535272
-0.085607402 -0.073252454 -0.046839129
-0.08535631 -0.072197452 -0.047761649
-0.084987678 -0.07139881 -0.048373308
-0.084737882 -0.07034833 -0.049291983
-0.084606797 -0.069048241 -0.050515391
-0.084240168 -0.068255208 -0.051122472
-0.083874144 -0.067463495 -0.051728539
-0.08350873 -0.066673085 -0.052333605
-0.08290723 -0.066384338 -0.052327413
-0.082305722 -0.066095591 -0.052321222
-0.081704214 -0.065806836 -0.05231503
-0.081459858 -0.06476897 -0.053223863
-0.080978192 -0.064231403 -0.053522181
-0.08025834 -0.064192183 -0.053211495
-0.079657584 -0.063903794 -0.053205311
-0.079056822 -0.063615404 -0.053199127
-0.078456067 -0.063327014 -0.053192943
-0.077855319 -0.063038625 -0.053186759
-0.077133864 -0.062998898 -0.052875806
-0.076653801 -0.062461846 -0.053174391
-0.076053046 -0.06217346 -0.053168207
-0.075452283 -0.061885066 -0.053162027
-0.074851535 -0.061596677 -0.053155843
-0.074372612 -0.061060425 -0.053454194
-0.073772103 -0.060772154 -0.053448014
-0.073049262 -0.060731508 -0.053137295
-0.072325818 -0.060690828 -0.052826315
-0.071601786 -0.060650114 -0.052515082
-0.071000524 -0.060361486 -0.052508894
-0.070399269 -0.060072854 -0.052502703
-0.069550149 -0.060279712 -0.051885646
-0.068948396 -0.059990846 -0.051879451
-0.068346635 -0.059701975 -0.051873259
-0.0674951 -0.059908699 -0.051255167
-0.066892847 -0.059619591 -0.051248968
-0.066165045 -0.059578348 -0.050936427
-0.065436639 -0.059537068 -0.050623633
-0.06458126 -0.059743997 -0.050003469
-0.063978001 -0.059454408 -0.049997263
-0.06324777 -0.059413023 -0.049683683
-0.062389504 -0.059620108 -0.049061958
-0.061785493 -0.059330158 -0.049055744
-0.06105344 -0.059288669 -0.048741378
-0.060320772 -0.059247151 -0.048426755
-0.059587497 -0.059205595 -0.048111871
-0.058724377 -0.059412941 -0.047487538
-0.058377963 -0.058624964 -0.048099417
-0.05764357 -0.058583137 -0.047784265
-0.057038553 -0.058292702 -0.047778036
-0.056172945 -0.058499366 -0.047153164
-0.055436712 -0.05845743 -0.046837218
-0.054568674 -0.058664497 -0.046210777
-0.053830843 -0.058622573 -0.045894038
-0.052960377 -0.058830041 -0.045266017
-0.052220944 -0.058788136 -0.044948488
-0.051613644 -0.058496606 -0.044942237
-0.05074022 -0.058704223 -0.04431263
-0.049865332 -0.058912188 -0.043681964
-0.049123045 -0.05887023 -0.043363106
-0.048380144 -0.058828238 -0.043043975
-0.047501795 -0.059036665 -0.042411182
-0.046621975 -0.059245434 -0.041777328
-0.045876455 -0.059203509 -0.04145686
-0.044585004 -0.060167357 -0.039875634
-0.043699745 -0.060377788 -0.039237499
-0.04295047 -0.060336206 -0.038914874
-0.042200565 -0.060294583 -0.038591981
-0.040757712 -0.06151782 -0.036680456
-0.039447177 -0.062492717 -0.035079032
-0.037849903 -0.063983038 -0.032828122
-0.035959225 -0.065997235 -0.029916132
-0.035197355 -0.065957539 -0.029585525
-0.034291942 -0.066175804 -0.028929844
-0.091093227 -0.079115324 -0.042693783
-0.09071745 -0.078305848 -0.043313541
-0.090225644 -0.077755615 -0.043619905
-0.089617327 -0.07746359 -0.043613639
-0.088421635 -0.078462996 -0.042041607
-0.087812044 -0.078170359 -0.04203533
-0.087556697 -0.077102959 -0.042969327
-0.087301992 -0.076038249 -0.04390097
-0.087165736 -0.074719928 -0.045141604
-0.08679451 -0.07391683 -0.045757245
-0.086305983 -0.07337027 -0.046061557
-0.085935943 -0.072569311 -0.046675656
-0.085566521 -0.071769699 -0.047288727
-0.085315794 -0.070717871 -0.048209529
-0.084947653 -0.069921464 -0.048820045
-0.084816225 -0.06862209 -0.050044239
-0.084449418 -0.067829415 -0.05065171
-0.084319137 -0.066536739 -0.051869817
-0.083717629 -0.066248 -0.051863626
-0.083116129 -0.065959252 -0.051857434
-0.082514621 -0.065670505 -0.051851243
-0.081913114 -0.06538175 -0.051845051
-0.081668496 -0.064344406 -0.052754462
-0.081186742 -0.063807018 -0.053052977
-0.080466978 -0.063767627 -0.052742101
-0.079866223 -0.06347923 -0.052735917
-0.079385221 -0.062942207 -0.05303444
-0.078784712 -0.062653929 -0.053028256
-0.07806395 -0.062614061 -0.052717365
-0.077342592 -0.062574163 -0.052406214
-0.07686244 -0.062037285 -0.052704997
-0.076261684 -0.061748892 -0.052698813
-0.075660929 -0.061460506 -0.052692629
-0.075060174 -0.061172117 -0.052686445
-0.074702814 -0.060388558 -0.053289466
-0.074102551 -0.060100406 -0.053283285
-0.07338015 -0.060059499 -0.05297263
-0.07241185 -0.060513828 -0.052051488
-0.071810596 -0.0602252 -0.052045301
-0.071332537 -0.059689071 -0.052344352
-0.070608087 -0.05964794 -0.052032921
-0.06975913 -0.059854448 -0.051415469
-0.069033124 -0.059813336 -0.051103264
-0.068431124 -0.059524346 -0.051097069
-0.06770426 -0.059483077 -0.050784599
-0.066976793 -0.059441775 -0.050471868
-0.066248722 -0.059400443 -0.050158877
-0.065520048 -0.059359074 -0.049845632
-0.064790763 -0.059317671 -0.049532119
-0.064060874 -0.059276231 -0.049218349
-0.063203283 -0.0594832 -0.048596237
-0.062471822 -0.059441775 -0.048281685
-0.061867557 -0.059151705 -0.048275463
-0.06100706 -0.059358828 -0.04765179
-0.060402293 -0.059068516 -0.047645565
-0.059668746 -0.059026871 -0.047330219
-0.058934584 -0.058985189 -0.047014609
-0.058329314 -0.058694635 -0.04700838
-0.057724044 -0.058404077 -0.047002152
-0.057248674 -0.057865128 -0.047305308
-0.056383241 -0.058071438 -0.046680041
-0.055385519 -0.058527075 -0.045743302
-0.054648031 -0.058485094 -0.045426369
-0.053909924 -0.058443081 -0.045109171
-0.053039156 -0.058650482 -0.044480231
-0.052166928 -0.058858231 -0.043850236
-0.051426232 -0.058816284 -0.043531712
-0.050684918 -0.058774304 -0.04321292
-0.049942978 -0.05873229 -0.042893864
-0.049200416 -0.058690239 -0.042574536
-0.048322763 -0.058898546 -0.041941348
-0.047578581 -0.05885651 -0.041621219
-0.046833776 -0.05881444 -0.041300822
-0.046088342 -0.05877234 -0.040980153
-0.044660814 -0.059987079 -0.039081935
-0.043912262 -0.059945341 -0.038759384
-0.043163076 -0.059903577 -0.038436558
-0.041999623 -0.060619246 -0.037161462
-0.040970948 -0.061083909 -0.036200725
-0.03980032 -0.06180371 -0.034918044
-0.038064227 -0.063546911 -0.032345939
-0.036174372 -0.065559432 -0.029432094
-0.035412591 -0.065519549 -0.029101279
-0.034792833 -0.06522204 -0.029094901
-0.034173068 -0.064924523 -0.029088521
-0.092261873 -0.078201763 -0.043163382
-0.091653548 -0.077909745 -0.043157119
-0.091045231 -0.077617727 -0.043150861
-0.090436913 -0.077325709 -0.043144595
-0.089242943 -0.078324825 -0.041571576
-0.088750929 -0.077773646 -0.041879185
-0.088023752 -0.077739544 -0.041559029
-0.087768145 -0.076672688 -0.042493623
-0.087513171 -0.075608522 -0.043425865
-0.087376557 -0.074290916 -0.044667292
-0.087005161 -0.073488191 -0.045283329
-0.086516552 -0.072941802 -0.045587841
-0.086146325 -0.072141208 -0.046202336
-0.086012505 -0.070834339 -0.047434472
-0.085761435 -0.069784552 -0.048354324
-0.085275374 -0.069241986 -0.048656289
-0.084907733 -0.068447806 -0.049265672
-0.08465866 -0.067403615 -0.050180946
-0.084645763 -0.065861493 -0.051705472
-0.084044501 -0.065572865 -0.051699284
-0.083325028 -0.06553416 -0.051387452
-0.082723521 -0.065245412 -0.05138126
-0.08212202 -0.064956665 -0.051375069
-0.081758358 -0.06416899 -0.051979922
-0.081276372 -0.063631453 -0.052278884
-0.080675624 -0.063343063 -0.0522727
-0.080074862 -0.063054673 -0.052266516
-0.079593778 -0.062517822 -0.052565236
-0.078993268 -0.062229544 -0.052559055
-0.078272589 -0.062189505 -0.052247968
-0.077551313 -0.062149428 -0.051936623
-0.077071086 -0.061612725 -0.0522356
-0.076470323 -0.061324332 -0.052229419
-0.075869568 -0.061035946 -0.052223235
-0.075147294 -0.060995393 -0.051911879
-0.07466805 -0.060459163 -0.052210867
-0.074067302 -0.060170777 -0.052204683
-0.073466539 -0.059882384 -0.052198503
-0.07262066 -0.060088914 -0.051581699
-0.072019406 -0.059800286 -0.051575512
-0.071418151 -0.059511658 -0.051569324
-0.070816897 -0.059223026 -0.051563133
-0.070091933 -0.059181686 -0.051251248
-0.069242194 -0.059387892 -0.050632894
-0.068515673 -0.059346568 -0.05032023
-0.067788541 -0.05930521 -0.05000731
-0.067060813 -0.059263818 -0.049694125
-0.066332474 -0.059222393 -0.049380682
-0.065729469 -0.058932923 -0.049374476
-0.064873978 -0.059139434 -0.048753012
-0.064017057 -0.059346292 -0.048130516
-0.063285939 -0.059304815 -0.04781577
-0.062554203 -0.059263296 -0.047500759
-0.061693925 -0.059470605 -0.046876173
-0.060960606 -0.059429109 -0.046560381
-0.060612328 -0.058641121 -0.047173034
-0.059750065 -0.058847997 -0.046547916
-0.059015628 -0.058806222 -0.046231855
-0.058410108 -0.058515541 -0.046225619
-0.057804585 -0.058224864 -0.046219386
-0.057199057 -0.057934184 -0.046213154
-0.056463253 -0.057892013 -0.045896817
-0.055465214 -0.058347613 -0.044958699
-0.054858677 -0.058056448 -0.044952456
-0.053857364 -0.058512829 -0.044011973
-0.052985825 -0.058720458 -0.043381583
-0.052245472 -0.058678456 -0.043062866
-0.051371478 -0.058886491 -0.042430885
-0.050762907 -0.058594346 -0.042424623
-0.050020687 -0.058552239 -0.042105097
-0.049277846 -0.058510095 -0.041785307
-0.048534382 -0.058467917 -0.041465249
-0.04765543 -0.058676209 -0.040830594
-0.046910338 -0.05863405 -0.040509727
-0.04575713 -0.059345163 -0.039242428
-0.044873238 -0.059554812 -0.038604025
-0.044124775 -0.059512898 -0.038281269
-0.042963441 -0.060227606 -0.037006449
-0.042212587 -0.060185891 -0.036682334
-0.040906798 -0.061156724 -0.035082951
-0.040153164 -0.061115287 -0.034757197
-0.038699571 -0.0623453 -0.032828584
-0.037238546 -0.063581601 -0.0308901
-0.035770025 -0.064824238 -0.02894168
-0.035150528 -0.064526856 -0.028935302
-0.034531027 -0.064229466 -0.028928926
-0.092850223 -0.078580551 -0.042068049
-0.092473134 -0.077771857 -0.042688075
-0.091864817 -0.077479847 -0.042681817
-0.091256492 -0.077187821 -0.042675551
-0.089947172 -0.078445464 -0.040787205
-0.089337319 -0.078152709 -0.040780928
-0.088845052 -0.077601381 -0.041088998
-0.08823546 -0.077308737 -0.041082721
-0.087979585 -0.076242425 -0.042017918
-0.087959588 -0.074665628 -0.043575518
-0.08782234 -0.073350705 -0.04481566
-0.087333389 -0.072804384 -0.045120366
-0.086962484 -0.072003901 -0.045735251
-0.086356714 -0.071713097 -0.045729015
-0.086340196 -0.070153631 -0.047271088
-0.085971206 -0.069357693 -0.047882386
-0.085485063 -0.068815306 -0.048184548
-0.085117243 -0.068021476 -0.048794322
-0.084867902 -0.066977821 -0.049710184
-0.084736928 -0.065686569 -0.050929856
-0.084253319 -0.065147951 -0.051229496
-0.083652064 -0.064859323 -0.051223308
-0.083050802 -0.064570695 -0.05121712
