# .PCD v0.7 - Point Cloud Data file format
VERSION 0.7
FIELDS x y z
SIZE 4 4 4
TYPE F F F
COUNT 1 1 1
WIDTH 229
HEIGHT 1
VIEWPOINT 0 0 0 1 0 0 0
POINTS 229
DATA ascii
-0.090553135 0.0086498763 0.25900003
-0.084565841 0.0065236087 0.25885022
-0.075025655 0.006022586 0.2582792
-0.064917125 0.0060715303 0.25818172
-0.05490483 0.0062867147 0.25816056
-0.044970974 0.0065467446 0.25766948
-0.035103414 0.0065871277 0.25748128
-0.025004657 0.0068683624 0.25720397
-0.015128139 0.0069717588 0.25690439
-0.0050706817 0.0073058698 0.25681731
0.0050421767 0.0073561566 0.25646317
0.014963611 0.0075079068 0.25602973
0.024973752 0.0079627139 0.25538898
0.035061471 0.0081366971 0.25501361
0.044924889 0.008245307 0.25482467
0.054959059 0.0084142638 0.25514618
0.064475663 0.0085021518 0.25596064
0.070918314 0.0089226626 0.25780001
-0.090310141 0.01016857 0.259
-0.084355228 0.011106879 0.25900003
-0.074666232 0.012060245 0.25874308
-0.064728126 0.012545337 0.25860533
-0.054755252 0.01311772 0.25843161
-0.044897612 0.013804766 0.25835612
-0.034777205 0.014480322 0.25801346
-0.02496008 0.014686121 0.25768641
-0.015007934 0.014757546 0.25726038
-0.0049792328 0.014968152 0.25678423
0.0050303279 0.014916557 0.25590664
0.01493037 0.014922302 0.25509188
0.025086639 0.01505293 0.25443771
0.035098564 0.015041045 0.25360662
0.045075048 0.015043574 0.25317234
0.054877706 0.015004884 0.25245765
0.064943291 0.014964117 0.25280803
0.072256863 0.015346606 0.25437576
-0.023314752 0.020283062 0.25899994
-0.014321754 0.021117181 0.25900006
-0.0045783571 0.022525758 0.25878435
0.005303611 0.023888418 0.2584222
0.015191727 0.024744535 0.25788823
0.025007753 0.025107719 0.25723192
0.034979653 0.024900194 0.2564148
0.045015026 0.024885358 0.25562537
0.055074167 0.024802264 0.25479704
0.065018326 0.02474522 0.2540738
0.072012596 0.024368107 0.25434121
0.018762391 0.03039756 0.259
0.026186626 0.031169938 0.25899991
0.035511423 0.032315943 0.25865948
0.045163695 0.033475645 0.25825843
0.055163596 0.034396511 0.2579141
0.064957768 0.034850251 0.25743529
0.071127146 0.033211008 0.25691062
0.059493739 0.04023869 0.259
0.064456366 0.040238686 0.25900003
-0.093122214 -0.00085210026 0.26810259
-0.084974326 -0.00082508055 0.26750949
-0.075228982 -0.00073437335 0.2670612
-0.064962104 -0.00050926692 0.26719442
-0.10062189 0.0047685429 0.26390481
-0.094998948 0.0049767834 0.26184744
-0.085837319 0.001821788 0.26156443
-0.074842498 0.0011667842 0.26152065
-0.064974204 0.0011573192 0.26212507
-0.054980755 0.0014176493 0.26289132
-0.045006391 0.0017170232 0.26346782
-0.034919266 0.0017788395 0.26431248
-0.025034398 0.0020205276 0.26457137
-0.015056563 0.0024546082 0.26474571
-0.004786314 0.0030829748 0.264516
0.0050598392 0.0031617002 0.26503262
0.01516939 0.0035007705 0.26458028
0.024974901 0.0038877265 0.26451635
-0.10052635 0.015388798 0.26200005
-0.094954632 0.014982211 0.26104239
-0.08527118 0.016045209 0.26063797
-0.07529176 0.017075015 0.2605294
-0.06519676 0.01757326 0.26030329
-0.055298742 0.018099494 0.26014048
-0.045096863 0.018776298 0.26000017
-0.03750363 0.019236252 0.26000005
-0.10107215 0.025817508 0.26438993
-0.094934218 0.025120618 0.26370358
-0.084918857 0.025052955 0.26323378
-0.074944533 0.025043009 0.26300657
-0.064920008 0.025011087 0.26257497
-0.054957747 0.024992919 0.26242459
-0.04497043 0.024937171 0.26195663
-0.035048284 0.024852727 0.26137832
-0.025238367 0.025254147 0.26091361
-0.015366061 0.026012402 0.26068714
-0.0053067137 0.027182106 0.26030317
0.0046118312 0.02883495 0.26000017
0.012392493 0.029626321 0.26000008
-0.10178303 0.034518715 0.26688784
-0.094990321 0.035058483 0.26708108
-0.08493986 0.035168219 0.26668319
-0.074984506 0.035120834 0.26611385
-0.065027319 0.035162628 0.26562372
-0.055034481 0.035107695 0.26562595
-0.045026314 0.035001241 0.26530352
-0.035014074 0.03497497 0.26460433
-0.024892692 0.034880023 0.26388568
-0.014823605 0.034780722 0.26314405
-0.0047852965 0.034942113 0.26247865
0.0051086354 0.035120074 0.26189053
0.015010534 0.035136364 0.26121897
0.024718143 0.035869814 0.26084763
0.034654193 0.037344515 0.2604658
0.044575937 0.038650203 0.26016173
0.053247113 0.039343424 0.26000011
0.071674339 0.038896561 0.26100004
-0.10039815 0.040727608 0.26900002
-0.094821595 0.041354071 0.2689997
-0.084640458 0.041976783 0.26893106
-0.07495755 0.042396355 0.26861882
-0.064750269 0.0432106 0.26833731
-0.054827593 0.0436524 0.26822138
-0.044735841 0.044295847 0.26801184
-0.035013221 0.045070436 0.26777405
-0.025060875 0.044811215 0.26704311
-0.014982152 0.044760562 0.26623702
-0.0049010091 0.045179002 0.26567793
0.0051294579 0.045026742 0.26491991
0.015074769 0.044980694 0.26432341
0.025112465 0.04489632 0.2636002
0.035103574 0.045050584 0.26275986
0.044960279 0.045186825 0.26231334
0.054994024 0.045081373 0.26162913
0.065019242 0.045188569 0.26111221
0.070576265 0.04346776 0.26076004
-0.033435758 0.050650597 0.26900002
-0.024469595 0.051624719 0.26890188
-0.014902129 0.052720517 0.26854351
-0.0046543716 0.053742327 0.26833534
0.0051462618 0.054593526 0.26802799
0.014877789 0.055120245 0.26756373
0.024972089 0.055009659 0.26694718
0.034919608 0.054926123 0.26641706
0.044990603 0.055114593 0.26601309
0.055052035 0.055113308 0.26506534
0.064777926 0.054801993 0.26427445
0.070405677 0.051130839 0.26300001
0.017688653 0.060720261 0.26900002
0.026030809 0.06098802 0.26900002
0.035408683 0.061630759 0.26896319
0.045492448 0.062896974 0.26850298
0.055104636 0.064237982 0.26788291
0.064365961 0.065146178 0.26779187
0.066096902 0.070420839 0.26900002
-0.10364487 0.039477888 0.27000001
-0.10204558 0.045186903 0.27078444
-0.095012113 0.046333078 0.27051017
-0.085275322 0.046807032 0.27044711
-0.075099729 0.047226105 0.2704505
-0.065511376 0.048069637 0.27043894
-0.05515407 0.048612926 0.27002439
-0.046455506 0.049317267 0.27000016
-0.10162413 0.054340851 0.2736266
-0.095006518 0.054926991 0.2734082
-0.084969044 0.05481334 0.27279273
-0.0750174 0.055052843 0.27274451
-0.064949326 0.055049948 0.27276549
-0.055044331 0.055141348 0.27238938
-0.044924211 0.05502636 0.2715182
-0.035147861 0.055443648 0.270872
-0.025186075 0.05656226 0.27056643
-0.015227514 0.057881299 0.27030915
-0.0056182388 0.058547933 0.27007341
0.0032120578 0.059357032 0.27000001
-0.10125012 0.063842542 0.27711371
-0.094926305 0.064748019 0.27648181
-0.085008956 0.064895228 0.27613494
-0.074969307 0.065012619 0.27591959
-0.064908728 0.065179043 0.27574018
-0.054981455 0.065155596 0.27535698
-0.044900682 0.064989939 0.27468267
-0.03492279 0.06482929 0.27388927
-0.025069589 0.064762436 0.2733134
-0.0149995 0.065013237 0.27275094
-0.0049925759 0.065010987 0.27225721
0.0050521409 0.06482707 0.27148882
0.014935572 0.06529288 0.27118167
0.024940232 0.065859258 0.27088514
0.034866631 0.066511579 0.27051499
0.044360436 0.067628376 0.27020544
0.053904913 0.069255702 0.27000016
0.06620013 0.069685213 0.27000001
-0.093730502 0.072578289 0.27873254
-0.085156597 0.072832465 0.27853268
-0.074988529 0.07350871 0.27852973
-0.06517113 0.073844999 0.27844146
-0.054728325 0.074637718 0.27809042
-0.045021322 0.075067125 0.2775569
-0.034993663 0.0748659 0.27688184
-0.025098832 0.074759848 0.27651897
-0.015019568 0.075002365 0.27610856
-0.0048562521 0.075050317 0.27557826
0.0051135682 0.074913889 0.27486423
0.014915969 0.074794739 0.27430764
0.025024647 0.075068027 0.27358308
0.035045017 0.074930534 0.27284816
0.044941414 0.074819431 0.27237195
0.055023219 0.07513345 0.27174935
0.063191593 0.074467741 0.27120784
-0.050462533 0.080449641 0.27900001
-0.044038638 0.081191249 0.27900007
-0.034570456 0.081473723 0.27883318
-0.024430541 0.08169385 0.27823994
-0.014804021 0.082246386 0.27793491
-0.0047906442 0.082285173 0.27724391
0.0051528709 0.082192756 0.27693307
0.015156491 0.082185686 0.27655685
0.025012018 0.082589649 0.27606252
0.035160296 0.08249557 0.27494413
0.045021985 0.082543977 0.27426291
0.054234467 0.081838109 0.27364531
0.06046582 0.081146851 0.27380005
-0.10117894 0.068916813 0.28
-0.096253447 0.07482741 0.28
-0.084310286 0.076947697 0.28
-0.07491903 0.078505099 0.28
-0.065038547 0.078755081 0.27999997
-0.057671856 0.079093315 0.28000006
-0.072549522 0.080405518 0.28
-0.064943403 0.080713928 0.27999994
-0.055871591 0.081060447 0.27999991
-0.04849026 0.08183568 0.28
