# .PCD v0.7 - Point Cloud Data file format
VERSION 0.7
FIELDS x y z
SIZE 4 4 4
TYPE F F F
COUNT 1 1 1
WIDTH 78
HEIGHT 1
VIEWPOINT 0 0 0 1 0 0 0
POINTS 78
DATA ascii
-0.021928634 -0.020927276 0.045996312
-0.017202226 -0.020688569 0.045162641
-0.020186067 -0.019983796 0.042000003
-0.018397475 -0.019928642 0.041479189
-0.022598451 -0.021685183 0.05421453
-0.016896244 -0.021471184 0.053955335
-0.022628093 -0.022140691 0.064339191
-0.018555803 -0.021726858 0.064450309
-0.022771079 -0.022382164 0.074140899
-0.01800386 -0.022057494 0.073859252
-0.024933321 -0.023125885 0.081706651
-0.018836208 -0.021815296 0.080564491
-0.02115385 -0.022209745 0.090437509
-0.019944914 -0.022190247 0.090000004
-0.015860969 -0.019981569 0.17400001
-0.05541268 -0.00048532558 0.26836368
-0.045196272 -0.00022752065 0.26872224
-0.039284501 -0.00022775585 0.26900002
0.034863863 0.0043493779 0.26446155
0.04500014 0.0046578222 0.26442599
0.0549278 0.0048747538 0.26450846
0.064954996 0.0053936089 0.26415727
0.071719036 0.0058803172 0.26447999
-0.10152886 -0.0011098627 0.27210528
-0.094957873 -0.0034112018 0.27405462
-0.084963925 -0.0037189184 0.27467811
-0.075076334 -0.0034134856 0.27432767
-0.065027572 -0.003131907 0.2744436
-0.055195339 -0.002854174 0.27485457
-0.04506423 -0.0022629739 0.27425477
-0.035101246 -0.0018569977 0.2740908
-0.025214909 -0.0015884624 0.2746565
-0.014982965 -0.001409883 0.27545983
-0.0051594339 -0.0012131627 0.27614474
0.0049572769 -0.0010735844 0.27655393
0.015080455 -0.00082011538 0.27664703
0.025102379 -0.00082334655 0.27772555
0.034291238 -0.00043916138 0.27799994
0.04515047 -0.00023572454 0.27841178
0.052603364 -0.00023622262 0.27900001
-0.10324119 0.00091997732 0.27185717
-0.013714994 0.00046193527 0.27047369
-0.0049595567 0.00062742247 0.27077782
0.0051822285 0.00065324199 0.27139997
0.015013946 0.00092572614 0.27186799
0.025364714 0.0010711283 0.27227119
0.035252165 0.0013295634 0.2727333
0.044935737 0.0014900509 0.27285898
0.055021912 0.0015860002 0.27398878
0.06525746 0.0019325278 0.27366677
0.070987366 0.0019104601 0.2733334
-0.10572722 -0.0022455559 0.28533337
-0.093862295 -0.0074252472 0.28334183
-0.084850587 -0.0076982849 0.28490922
-0.074875385 -0.0072691576 0.28465009
-0.065109737 -0.007084155 0.28494844
-0.054963149 -0.0064063366 0.28406656
-0.04507181 -0.0059468341 0.28403923
-0.035018757 -0.0056356727 0.28430468
-0.02501297 -0.0051231398 0.28426003
-0.015020007 -0.0047311881 0.28449005
-0.0049302587 -0.004441903 0.28471705
0.00497582 -0.0038682763 0.28410351
0.014951338 -0.0035383336 0.28440592
0.024797536 -0.003370852 0.28461367
0.035159387 -0.0028015685 0.28418267
0.044942163 -0.0023699943 0.28376472
0.054998543 -0.0019964036 0.2838617
0.064411618 -0.0014202223 0.28320524
0.070717998 -0.0010485206 0.28516665
-0.10900185 0.00096192426 0.28500003
-0.11257935 -0.0018158667 0.296
-0.10463475 -0.0063987491 0.294
-0.094417259 -0.0094195018 0.29145455
-0.089180842 -0.009493079 0.29200003
-0.074232683 -0.0094345575 0.29019997
-0.11152632 0.00036663204 0.29000002
-0.15055238 -0.0050150305 0.32100001
