# .PCD v0.7 - Point Cloud Data file format
VERSION 0.7
FIELDS x y z
SIZE 4 4 4
TYPE F F F
COUNT 1 1 1
WIDTH 362
HEIGHT 1
VIEWPOINT 0 0 0 1 0 0 0
POINTS 362
DATA ascii
0.11501329 -0.10133986 0.25618184
0.11629009 -0.098984897 0.25675002
0.086566873 -0.090480939 0.26607695
0.1163473 -0.093663633 0.260353
0.077847131 -0.082735725 0.26874101
0.084874123 -0.084109977 0.26741636
0.093886875 -0.081444606 0.26805463
0.1029404 -0.080950059 0.26700011
0.11798517 -0.083476998 0.26338252
0.12037127 -0.08266589 0.26300001
0.079299159 -0.079535894 0.26900002
0.086091705 -0.078331381 0.26899973
0.095234483 -0.077546008 0.26872173
0.1053982 -0.075696021 0.26775882
0.11495023 -0.07472159 0.26661623
0.12251611 -0.073828906 0.26549989
0.10948925 -0.069504075 0.26900002
0.11629022 -0.068398535 0.26873171
0.12678103 -0.063156553 0.2686539
0.13248672 -0.063987933 0.26900002
0.12652442 -0.059850819 0.26900002
-0.14118752 -0.10064602 0.27560002
-0.13404888 -0.10190369 0.27404907
-0.12542801 -0.10295419 0.2728754
-0.11860977 -0.10125322 0.27341929
-0.15211345 -0.093239784 0.27876306
-0.14482328 -0.094563507 0.27743909
-0.13494135 -0.094932161 0.27566946
-0.12498251 -0.094945602 0.27514178
-0.11541528 -0.094431758 0.27544275
-0.10756958 -0.091678634 0.27726158
-0.15111375 -0.088931769 0.27900001
-0.14409694 -0.087263107 0.27879363
-0.13507356 -0.086382233 0.27824754
-0.12516384 -0.08626806 0.27816436
-0.11500563 -0.086503834 0.27817029
-0.10593214 -0.086772844 0.2784543
-0.099219017 -0.086138494 0.27900001
0.074262537 -0.080655754 0.27015626
0.05917 -0.071054354 0.27500001
0.065955356 -0.073299371 0.27320045
0.075031266 -0.074866101 0.27155787
0.084737368 -0.073824339 0.27095607
0.094760098 -0.072423652 0.27040017
0.10276052 -0.071442872 0.27022243
-0.070346959 -0.061766285 0.27500001
0.047750939 -0.0624386 0.27875561
0.055919301 -0.064727068 0.27756929
0.064927295 -0.065004736 0.27608612
0.075084031 -0.065152913 0.2748377
0.084949769 -0.064830579 0.27360767
0.094906896 -0.064926781 0.27285662
0.10500117 -0.06494683 0.27154148
0.11457419 -0.063805848 0.27063081
0.12137642 -0.062335704 0.27011129
0.058492847 -0.059131019 0.27899998
0.065834858 -0.057882544 0.27844349
0.075380214 -0.056003861 0.27802771
0.085059606 -0.055063892 0.27744529
0.095102623 -0.054995548 0.27613306
0.10515484 -0.054997586 0.27444145
0.11473496 -0.055322349 0.2728636
0.12084813 -0.056112189 0.27269804
0.087021485 -0.04854174 0.27900007
0.095412262 -0.046272688 0.27863318
0.10507806 -0.045182209 0.2778978
0.11472227 -0.045141421 0.27632752
0.12111977 -0.044155665 0.27725804
0.10820987 -0.039352182 0.27900001
0.11524886 -0.036888003 0.27883187
0.12130564 -0.036561344 0.27900007
-0.16157234 -0.091622762 0.28294447
-0.1567536 -0.092238657 0.28054234
-0.16218771 -0.083757654 0.28405002
-0.15429929 -0.084741905 0.28120166
-0.14569966 -0.082900524 0.28028008
-0.13463022 -0.081431583 0.28006402
-0.12456203 -0.081290387 0.28008154
-0.11491859 -0.08149454 0.2801227
-0.1046297 -0.082337439 0.28030139
-0.096886128 -0.081841886 0.28071761
-0.1609842 -0.077704705 0.28433329
-0.15416557 -0.074876174 0.28354836
-0.14483359 -0.074746139 0.2831907
-0.13480802 -0.075241581 0.28225306
-0.12501404 -0.074941844 0.2822378
-0.11500631 -0.075036421 0.28225583
-0.10519821 -0.075110234 0.28290007
-0.094996482 -0.074830115 0.28288314
-0.086446427 -0.073052078 0.28420264
-0.079801813 -0.070274174 0.28600001
-0.16005111 -0.064158626 0.287
-0.15397024 -0.064746246 0.28632814
-0.14512825 -0.065058909 0.28616461
-0.13471107 -0.064961575 0.28571793
-0.12492283 -0.065000638 0.28569674
-0.11493033 -0.065087341 0.28564849
-0.10499145 -0.064973339 0.28594995
-0.095084123 -0.06515421 0.28622389
-0.084946632 -0.064897276 0.28628743
-0.075967848 -0.063388497 0.2871857
-0.069454513 -0.060233649 0.289
0.046073817 -0.060596414 0.28033337
0.051741138 -0.06098479 0.28000003
-0.15331152 -0.058017667 0.28867841
-0.14507742 -0.056995798 0.28847867
-0.13485664 -0.056373458 0.28828153
-0.12501837 -0.056850124 0.28847745
-0.11508401 -0.057306804 0.28854039
-0.10486265 -0.057216167 0.28853121
-0.094982065 -0.057238471 0.28854543
-0.085052185 -0.057639293 0.28853223
-0.075058073 -0.057824489 0.28874975
-0.06897603 -0.058271892 0.289
0.02956981 -0.050576296 0.28500006
0.036207791 -0.052845284 0.28350034
0.045189239 -0.055126417 0.28206456
0.054800976 -0.05489159 0.28122389
0.064615689 -0.053070612 0.28053257
0.073449455 -0.051376771 0.2802144
0.019162957 -0.041409057 0.28852946
0.025924714 -0.044012051 0.28681457
0.035012994 -0.045083001 0.28588611
0.045029927 -0.045105167 0.28523633
0.055016242 -0.045017738 0.28445223
0.064873867 -0.045038234 0.2831153
0.075110547 -0.045029618 0.28205433
0.084591672 -0.044229999 0.28091088
0.093351528 -0.041883141 0.28015676
0.1018498 -0.040429074 0.28
0.017317168 -0.038295519 0.2889998
0.025153266 -0.037751019 0.28869182
0.035063758 -0.03690283 0.28851426
0.045270894 -0.03623382 0.288196
0.055158045 -0.035189971 0.28794008
0.065021165 -0.034997143 0.28677976
0.074997351 -0.035157431 0.28531453
0.085007705 -0.03497795 0.28398642
0.094977543 -0.035088211 0.282134
0.1049156 -0.034764409 0.28116614
0.11345804 -0.032753561 0.28054807
0.12301223 -0.032457855 0.28046814
0.059064221 -0.029527435 0.289
0.066452369 -0.028201304 0.28891283
0.075449996 -0.025858933 0.28819332
0.084993802 -0.025070492 0.28696966
0.09495993 -0.024949115 0.28564537
0.10507134 -0.024877168 0.28473634
0.11440042 -0.025399361 0.28298077
0.12255474 -0.027331401 0.28183594
0.14291126 -0.026919821 0.28494123
0.079196103 -0.019766519 0.289
0.086406618 -0.018108044 0.28879756
0.09550941 -0.015736017 0.28821674
0.10512106 -0.014864905 0.2875571
0.11406681 -0.016003 0.28601691
0.12045068 -0.014783044 0.287
0.10722663 -0.0091065699 0.289
0.1106903 -0.0086329756 0.289
-0.14196616 -0.072129481 0.29012498
-0.16247353 -0.052388623 0.29280654
-0.15497865 -0.052918863 0.29052746
-0.14498562 -0.051852494 0.29034781
-0.13515949 -0.051521048 0.2900002
-0.12476603 -0.051812794 0.29025903
-0.11484551 -0.052075341 0.2903116
-0.10517392 -0.052134432 0.29036403
-0.095011808 -0.052075189 0.29038393
-0.084945105 -0.052609522 0.29051325
-0.075038336 -0.052622907 0.29044554
-0.065852754 -0.053195979 0.29053798
-0.059183054 -0.050756834 0.29180002
-0.16129848 -0.049558423 0.29200003
-0.15342242 -0.045069054 0.29260403
-0.145073 -0.04499507 0.29229307
-0.13498817 -0.045262195 0.29214993
-0.12509799 -0.045039739 0.29231033
-0.11499427 -0.045014407 0.29228827
-0.10501572 -0.044968758 0.29261944
-0.094934866 -0.045085452 0.29268163
-0.084993646 -0.045056291 0.2927683
-0.074950919 -0.044989444 0.29247096
-0.064946622 -0.04497958 0.29233953
-0.055932548 -0.044233855 0.29298949
-0.049638085 -0.041333426 0.294
0.017641159 -0.041260798 0.29000002
-0.16153218 -0.036017597 0.29725003
-0.15299547 -0.034903355 0.29534039
-0.14492823 -0.035179917 0.29547957
-0.13491662 -0.035153098 0.29544735
-0.12500773 -0.035156641 0.29549047
-0.11500947 -0.035190906 0.2957252
-0.10499223 -0.035292853 0.29591885
-0.09492331 -0.035193644 0.29571527
-0.084963143 -0.035192352 0.29568225
-0.074953496 -0.035174698 0.29552162
-0.065050922 -0.035190694 0.29562029
-0.055027977 -0.035124578 0.29502532
-0.04605158 -0.033734191 0.29515979
-0.035332806 -0.031324651 0.29502571
-0.024528457 -0.031014511 0.29483026
-0.014961808 -0.031904709 0.2933057
-0.0049361177 -0.031886157 0.29299977
0.0056317169 -0.032585368 0.29154405
0.014750723 -0.0336321 0.29045796
0.02480584 -0.032839995 0.29069906
0.034931011 -0.03188761 0.29008946
0.044181872 -0.03149027 0.29000023
0.052330688 -0.030445831 0.28999999
-0.15213457 -0.026666332 0.29797873
-0.14523809 -0.02664906 0.29829791
-0.13500275 -0.026406685 0.29823995
-0.12492238 -0.026482163 0.29840121
-0.1151671 -0.026690245 0.29851142
-0.10500945 -0.0265078 0.29865944
-0.094955705 -0.02636385 0.29828289
-0.084815577 -0.026114276 0.29815784
-0.074817605 -0.025768764 0.29820487
-0.065042876 -0.025178161 0.29830658
-0.055020183 -0.025123909 0.29765868
-0.04495766 -0.02501763 0.29710141
-0.034883514 -0.024987746 0.2967656
-0.024809973 -0.024936844 0.29614779
-0.01477153 -0.024877269 0.29545683
-0.0047128722 -0.025021918 0.29481494
0.0051623662 -0.025077358 0.29416481
0.015060658 -0.025012782 0.29340753
0.024998048 -0.025036637 0.29308674
0.034996543 -0.024922505 0.29209939
0.045050047 -0.024802336 0.29170403
0.054920845 -0.024995442 0.29114148
0.064476594 -0.023890577 0.2904045
0.072595179 -0.021619719 0.29002172
-0.093568847 -0.010362974 0.29527783
-0.086217567 -0.010386499 0.29521051
-0.073797211 -0.010609287 0.29360524
-0.064868301 -0.012231197 0.29684314
-0.054658815 -0.01534998 0.29801306
-0.044777248 -0.017052624 0.29889402
-0.034250628 -0.016097771 0.29880577
-0.025012905 -0.015060402 0.29859042
-0.014912063 -0.015041615 0.29826137
-0.0048325723 -0.015025659 0.29796883
0.0052199722 -0.014997656 0.29739439
0.015181632 -0.015018116 0.29686961
0.025133407 -0.01488161 0.29606932
0.035098463 -0.01488771 0.2952536
0.045008365 -0.014889737 0.29457691
0.055065997 -0.015016958 0.29386961
0.065033183 -0.01506032 0.29279262
0.074896991 -0.014975923 0.29147467
0.08438658 -0.013577759 0.29087958
0.093244925 -0.011206121 0.29013795
-0.063951917 -0.0093273511 0.29118177
-0.054388899 -0.0089703742 0.29164287
-0.044902608 -0.0089019332 0.29269993
-0.034559377 -0.0087893745 0.29403585
-0.024688151 -0.008503004 0.29477778
-0.014950574 -0.0083575379 0.29539505
-0.0046420717 -0.0082265465 0.29628408
0.0053351815 -0.0078303749 0.29606491
0.014992389 -0.0077369036 0.29632735
0.025151204 -0.0075633628 0.29582062
0.035241436 -0.0074382522 0.29579726
0.045152038 -0.0071389298 0.29508457
0.055127952 -0.006927487 0.29465741
0.065142125 -0.0064868038 0.29476395
0.07527414 -0.0055003995 0.29428136
0.085064575 -0.0049271192 0.29379174
0.094987728 -0.004883056 0.29255551
0.10458933 -0.0046857432 0.29172578
0.1133558 -0.0038446677 0.29219997
0.12046881 -0.0032521302 0.29200003
0.14348431 -0.0045859083 0.29086667
0.079096697 0.00062204234 0.29500002
0.086353861 0.0022908831 0.29590413
0.095054261 0.0050179642 0.29624033
0.10399801 0.0045154933 0.29476649
0.1143714 0.002856716 0.29662508
0.096946165 0.012641759 0.29824483
0.10395984 0.013831536 0.29810217
0.14363301 0.018169012 0.29900002
0.14315961 0.020575335 0.29900002
-0.18195404 -0.029230671 0.30500004
-0.1605515 -0.02122266 0.30100003
-0.15528342 -0.021970818 0.3002964
-0.14434928 -0.021871796 0.29999995
-0.13500366 -0.021468809 0.30000004
-0.12511905 -0.021583518 0.29999992
-0.11465542 -0.021743774 0.29999986
-0.10517539 -0.021583514 0.29999992
-0.094790556 -0.021468803 0.29999998
-0.085212231 -0.021231316 0.30000013
-0.076163135 -0.020989323 0.3000001
-0.069459446 -0.020518878 0.30000001
-0.16023381 -0.019951886 0.30100003
-0.15811829 -0.019885601 0.30000001
-0.14201877 -0.016618932 0.30136839
-0.13502191 -0.015403919 0.30180752
-0.12512045 -0.015249008 0.30188525
-0.11502945 -0.015245906 0.30211654
-0.10497582 -0.015262551 0.3018637
-0.095078014 -0.015688993 0.30126047
-0.084902421 -0.015557585 0.30087963
-0.075033292 -0.015900003 0.30072838
-0.064956874 -0.015883792 0.30038336
-0.055064864 -0.014911872 0.29999951
-0.045025799 -0.014077433 0.29999954
-0.036640052 -0.013051141 0.29999986
-0.1502246 -0.0048176302 0.30850002
-0.14517811 -0.0060745887 0.30698326
-0.1346788 -0.0056141494 0.3056404
-0.12486234 -0.0052008238 0.30532002
-0.11555973 -0.006356989 0.30502269
-0.10771231 -0.0086658178 0.30379996
-0.14095689 0.0023840859 0.30888239
-0.13544841 0.0023463636 0.30871421
-0.12476269 0.0035602518 0.30810577
-0.11933026 0.0028332886 0.30730772
0.091076374 0.0098784352 0.30000001
0.10739549 0.018473204 0.30374423
0.11035344 0.019219268 0.30250001
0.14211987 0.017809227 0.30025008
0.10759255 0.021316856 0.30275679
0.11056947 0.020941153 0.30200002
0.1054705 0.041713249 0.30876669
0.1422379 0.041408874 0.30800006
-0.1483207 -0.0053846077 0.31442857
-0.1335631 0.0069644731 0.31053409
-0.12586917 0.0084209004 0.31003585
-0.14773449 0.018640807 0.31900012
-0.13222039 0.011432391 0.3118571
-0.12628634 0.014641852 0.31245819
-0.14793091 0.020829305 0.31900001
-0.13044983 0.021343887 0.31500003
-0.12585273 0.024535803 0.31465337
-0.12484441 0.030579934 0.31571433
0.10590455 0.039783031 0.31100002
0.10693607 0.043981582 0.31059998
0.10549409 0.065851197 0.31713334
-0.14670588 0.017967451 0.32000002
-0.020167492 0.11635634 0.33900002
-0.018045338 0.11505031 0.33770838
0.063431717 0.11612751 0.33833337
-0.020226983 0.115623 0.34
-0.019509269 0.11526414 0.34
0.024465911 0.11866818 0.34787503
0.064283885 0.11553328 0.33999997
-0.092709161 0.16740783 0.35900015
-0.089561291 0.16717467 0.35900003
-0.077909783 0.16660632 0.359
-0.14311863 0.13589203 0.36000001
-0.13180676 0.16610172 0.36295003
-0.1250547 0.16570069 0.36093277
-0.11521526 0.16682455 0.3608405
-0.10492591 0.16629578 0.36000022
-0.097910546 0.1676774 0.3599999
-0.084604196 0.16745555 0.36000016
-0.075553551 0.16828246 0.36007819
-0.13396153 0.17113286 0.36750001
-0.073866054 0.17092122 0.36110535
-0.070436329 0.17464015 0.37
