# .PCD v0.7 - Point Cloud Data file format
VERSION 0.7
FIELDS x y z rgb
SIZE 4 4 4 4
TYPE F F F F
COUNT 1 1 1 1
WIDTH 973
HEIGHT 1
VIEWPOINT 0 0 0 1 0 0 0
POINTS 973
DATA ascii
-0.11265612 0.032980073 0.55400002 -2.8478308e+38
-0.1108623 0.032980073 0.55400002 -3.0205783e+38
-0.11016389 0.033039607 0.55500001 -3.0072339e+38
-0.10926536 0.033039607 0.55500001 -3.0335585e+38
-0.10746829 0.033039607 0.55500001 -3.0600911e+38
-0.10656976 0.033039607 0.55500001 -3.0467467e+38
-0.10567123 0.033039607 0.55500001 -3.0467467e+38
-0.1047727 0.033039607 0.55500001 -3.0600911e+38
-0.10297564 0.033039607 0.55500001 -2.9666807e+38
-0.10189319 0.032980073 0.55400002 -2.8870832e+38
-0.094924442 0.032741953 0.55000001 -1.7858611e+38
-0.093863033 0.032682419 0.54900002 -1.7080415e+38
-0.092804857 0.032622889 0.54800004 -2.1219788e+38
-0.090864353 0.032563359 0.54700005 -1.7637685e+38
-0.089978777 0.032563359 0.54700005 -1.7108612e+38
-0.089093193 0.032563359 0.54700005 -1.7242056e+38
-0.087162398 0.032503825 0.546 -1.7244654e+38
-0.086278439 0.032503825 0.546 -1.7113273e+38
-0.085394479 0.032503825 0.546 -1.7784134e+38
-0.08451052 0.032503825 0.546 -1.7656923e+38
-0.082742594 0.032503825 0.546 -1.7122627e+38
-0.081858635 0.032503825 0.546 -1.7122627e+38
-0.080974676 0.032503825 0.546 -1.7123148e+38
-0.16204885 0.031614441 0.51700002 -2.387956e+38
-0.16152366 0.031675596 0.51800001 -2.387956e+38
-0.16099523 0.031736743 0.51900005 -2.3348907e+38
-0.1596217 0.031797893 0.52000004 -2.228143e+38
-0.15908517 0.03185904 0.52100003 -1.8144664e+38
-0.15854542 0.031920191 0.52200001 -1.7068911e+38
-0.15830453 0.032042492 0.52400005 -1.7067348e+38
-0.15805715 0.03216479 0.52600002 -1.7063735e+38
-0.1221318 0.032348242 0.52900004 -3.1621605e+38
-0.12127537 0.032348242 0.52900004 -2.88167e+38
-0.12041893 0.032348242 0.52900004 -1.7065804e+38
-0.11956249 0.032348242 0.52900004 -1.7062186e+38
-0.11761148 0.033754688 0.55200005 -2.2389965e+38
-0.1167178 0.033754688 0.55200005 -2.1455857e+38
-0.11513866 0.033815835 0.55300003 -2.3706687e+38
-0.11424336 0.033815835 0.55300003 -2.7561387e+38
-0.11334807 0.033815835 0.55300003 -2.5292838e+38
-0.11265612 0.033876985 0.55400002 -2.8345379e+38
-0.1108623 0.033876985 0.55400002 -3.0205783e+38
-0.10996538 0.033876985 0.55400002 -3.0072339e+38
-0.10906848 0.033876985 0.55400002 -3.0203181e+38
-0.10746829 0.033938136 0.55500001 -3.0335585e+38
-0.10656976 0.033938136 0.55500001 -3.0202141e+38
-0.10567123 0.033938136 0.55500001 -3.0467467e+38
-0.1047727 0.033938136 0.55500001 -3.0467467e+38
-0.10279009 0.033876985 0.55400002 -2.9668364e+38
-0.10152534 0.033754688 0.55200005 -2.900375e+38
-0.094924442 0.033632386 0.55000001 -1.8124988e+38
-0.093863033 0.033571236 0.54900002 -1.7071552e+38
-0.092804857 0.033510085 0.54800004 -2.1618033e+38
-0.090864353 0.033448938 0.54700005 -1.7504231e+38
-0.089978777 0.033448938 0.54700005 -1.7239969e+38
-0.089093193 0.033448938 0.54700005 -1.7640301e+38
-0.087162398 0.033387788 0.546 -1.7510496e+38
-0.086278439 0.033387788 0.546 -1.7115875e+38
-0.085394479 0.033387788 0.546 -1.711796e+38
-0.08451052 0.033387788 0.546 -2.0057322e+38
-0.082742594 0.033387788 0.546 -1.7119504e+38
-0.081858635 0.033387788 0.546 -1.7120546e+38
-0.080974676 0.033387788 0.546 -1.7121593e+38
-0.16213946 0.03213761 0.51200002 -2.3479213e+38
-0.16194068 0.032263145 0.514 -2.3746102e+38
-0.16142195 0.032325916 0.51500005 -2.3880071e+38
-0.16121183 0.032451455 0.51700002 -2.3746627e+38
-0.16099523 0.032576989 0.51900005 -2.308254e+38
-0.1596217 0.032639761 0.52000004 -2.2148495e+38
-0.15908517 0.032702528 0.52100003 -1.8278617e+38
-0.15854542 0.032765295 0.52200001 -1.7068382e+38
-0.15830453 0.032890834 0.52400005 -1.7067339e+38
-0.15805715 0.033016372 0.52600002 -1.7064254e+38
-0.12190094 0.033141911 0.528 -3.0688543e+38
-0.12104612 0.033141911 0.528 -2.9886335e+38
-0.1201913 0.033141911 0.528 -1.7067366e+38
-0.11933648 0.033141911 0.528 -1.7064273e+38
-0.11761148 0.034648359 0.55200005 -2.3325635e+38
-0.1167178 0.034648359 0.55200005 -1.9455757e+38
-0.11513866 0.034711126 0.55300003 -2.3575312e+38
-0.11424336 0.034711126 0.55300003 -2.7693787e+38
-0.11355303 0.034773897 0.55400002 -2.5425238e+38
-0.11265612 0.034773897 0.55400002 -2.8610702e+38
-0.1108623 0.034773897 0.55400002 -3.0205787e+38
-0.10996538 0.034773897 0.55400002 -3.0072343e+38
-0.10906848 0.034773897 0.55400002 -3.0069741e+38
-0.10746829 0.034836669 0.55500001 -3.0203185e+38
-0.10656976 0.034836669 0.55500001 -3.0203185e+38
-0.10548083 0.034773897 0.55400002 -3.0335585e+38
-0.10458392 0.034773897 0.55400002 -3.0202141e+38
-0.10260455 0.034711126 0.55300003 -2.9668364e+38
-0.10152534 0.034648359 0.55200005 -2.9269073e+38
-0.10044936 0.034585591 0.551 -2.9269073e+38
-0.094924442 0.034522824 0.55000001 -1.8392391e+38
-0.093863033 0.034460053 0.54900002 -1.7071023e+38
-0.092804857 0.034397282 0.54800004 -2.1883349e+38
-0.090864353 0.034334518 0.54700005 -1.7635584e+38
-0.089978777 0.034334518 0.54700005 -1.7106e+38
-0.089093193 0.034334518 0.54700005 -1.7506853e+38
-0.087162398 0.034271747 0.546 -1.9112843e+38
-0.086278439 0.034271747 0.546 -2.0322648e+38
-0.085394479 0.034271747 0.546 -1.7118463e+38
-0.08451052 0.034271747 0.546 -2.1658626e+38
-0.082742594 0.034271747 0.546 -1.7118982e+38
-0.081858635 0.034271747 0.546 -1.7119504e+38
-0.080974676 0.034271747 0.546 -1.711951e+38
-0.16194068 0.0330953 0.514 -2.4144343e+38
-0.1617354 0.033224072 0.51600003 -2.3879546e+38
-0.1609 0.033224072 0.51600003 -2.3879546e+38
-0.16099523 0.033417236 0.51900005 -2.268377e+38
-0.1596217 0.033481628 0.52000004 -2.2682267e+38
-0.15908517 0.033546012 0.52100003 -1.7477949e+38
-0.15854542 0.0336104 0.52200001 -1.7067341e+38
-0.15830453 0.033739176 0.52400005 -1.706682e+38
-0.15775667 0.033803567 0.52500004 -1.706425e+38
-0.11761148 0.036435708 0.55200005 -2.1458441e+38
-0.1167178 0.036435708 0.55200005 -2.1191552e+38
-0.11513866 0.036501713 0.55300003 -2.4508351e+38
-0.11424336 0.036501713 0.55300003 -2.7422743e+38
-0.11355303 0.036567722 0.55400002 -2.6088302e+38
-0.11265612 0.036567722 0.55400002 -2.9143437e+38
-0.1108623 0.036567722 0.55400002 -3.0204743e+38
-0.10996538 0.036567722 0.55400002 -2.9937855e+38
-0.10906848 0.036567722 0.55400002 -3.0069737e+38
-0.10727465 0.036567722 0.55400002 -3.0203181e+38
-0.10637774 0.036567722 0.55400002 -3.0069737e+38
-0.10567123 0.03663373 0.55500001 -3.0470584e+38
-0.10458392 0.036567722 0.55400002 -3.0203696e+38
-0.10260455 0.036501713 0.55300003 -2.966992e+38
-0.10170926 0.036501713 0.55300003 -2.9269073e+38
-0.10063166 0.036435708 0.55200005 -2.9269073e+38
-0.098486185 0.036303695 0.55000001 -2.9140839e+38
-0.093863033 0.036237687 0.54900002 -1.7069968e+38
-0.092804857 0.036171678 0.54800004 -2.0144915e+38
-0.091030464 0.036171678 0.54800004 -1.7230548e+38
-0.089978777 0.036105674 0.54700005 -1.7101824e+38
-0.089093193 0.036105674 0.54700005 -1.7370797e+38
-0.087322034 0.036105674 0.54700005 -1.9914014e+38
-0.086278439 0.036039665 0.546 -1.9656995e+38
-0.085394479 0.036039665 0.546 -1.7118978e+38
-0.08451052 0.036039665 0.546 -1.7521917e+38
-0.082742594 0.036039665 0.546 -1.7116897e+38
-0.081858635 0.036039665 0.546 -1.7117419e+38
-0.080974676 0.036039665 0.546 -1.7118473e+38
-0.16257079 0.034894854 0.51600003 -2.4676565e+38
-0.1617354 0.034894854 0.51600003 -2.4144872e+38
-0.16121183 0.034962483 0.51700002 -2.4011428e+38
-0.16068502 0.035030108 0.51800001 -2.3083051e+38
-0.15931474 0.035097733 0.51900005 -2.2015558e+38
-0.15877983 0.035165362 0.52000004 -1.8412568e+38
-0.15824169 0.035232984 0.52100003 -1.7067331e+38
-0.15800242 0.035368238 0.523 -1.7067331e+38
-0.15745617 0.035435863 0.52400005 -1.7063204e+38
-0.11692924 0.037397005 0.55300003 -2.2259612e+38
-0.11513866 0.037397005 0.55300003 -2.5306407e+38
-0.11424336 0.037397005 0.55300003 -2.7552538e+38
-0.11355303 0.037464634 0.55400002 -2.6885318e+38
-0.11265612 0.037464634 0.55400002 -2.9674611e+38
-0.1108623 0.037464634 0.55400002 -3.0470069e+38
-0.10996538 0.037464634 0.55400002 -3.0203181e+38
-0.10906848 0.037464634 0.55400002 -3.0202141e+38
-0.10746829 0.037532259 0.55500001 -3.0202141e+38
-0.10637774 0.037464634 0.55400002 -3.0202141e+38
-0.10567123 0.037532259 0.55500001 -3.0602988e+38
-0.10458392 0.037464634 0.55400002 -3.03361e+38
-0.10279009 0.037464634 0.55400002 -2.9802324e+38
-0.10170926 0.037397005 0.55300003 -2.9535961e+38
-0.10081396 0.037397005 0.55300003 -2.9535961e+38
-0.098844312 0.037329383 0.55200005 -2.9272722e+38
-0.093863033 0.037126504 0.54900002 -1.7072566e+38
-0.092804857 0.037058879 0.54800004 -1.9609567e+38
-0.091030464 0.037058879 0.54800004 -1.7628789e+38
-0.089978777 0.036991253 0.54700005 -1.7101819e+38
-0.089093193 0.036991253 0.54700005 -1.7503715e+38
-0.087322034 0.036991253 0.54700005 -1.7911864e+38
-0.086278439 0.036923628 0.546 -1.912167e+38
-0.085394479 0.036923628 0.546 -1.7520359e+38
-0.08451052 0.036923628 0.546 -1.7788805e+38
-0.082742594 0.036923628 0.546 -1.7919647e+38
-0.081858635 0.036923628 0.546 -1.7116897e+38
-0.080974676 0.036923628 0.546 -1.7116396e+38
-0.16392328 0.035661004 0.51500005 -2.4940851e+38
-0.16257079 0.035730246 0.51600003 -2.4676565e+38
-0.1617354 0.035730246 0.51600003 -2.4144872e+38
-0.1609 0.035730246 0.51600003 -2.4144872e+38
-0.16068502 0.035868738 0.51800001 -2.3083051e+38
-0.15900776 0.035868738 0.51800001 -2.2414849e+38
-0.15877983 0.036007226 0.52000004 -1.8278084e+38
-0.15824169 0.036076471 0.52100003 -1.7067842e+38
-0.15770032 0.036145717 0.52200001 -1.7067842e+38
-0.15630896 0.036214963 0.523 -1.706164e+38
-0.1557595 0.036284205 0.52400005 -1.7060606e+38
-0.13080658 0.036422692 0.52600002 -1.7053821e+38
-0.12035836 0.03635345 0.52500004 -2.4415658e+38
-0.11973602 0.036422692 0.52600002 -1.706581e+38
-0.11803287 0.036422692 0.52600002 -1.7064808e+38
-0.11692924 0.0382923 0.55300003 -2.2525961e+38
-0.11513866 0.0382923 0.55300003 -2.5704648e+38
-0.11424336 0.0382923 0.55300003 -2.7282005e+38
-0.11355303 0.038361546 0.55400002 -2.7415449e+38
-0.11265612 0.038361546 0.55400002 -3.0205783e+38
-0.1108623 0.038361546 0.55400002 -3.03361e+38
-0.11016389 0.038430791 0.55500001 -3.03361e+38
-0.10926536 0.038430791 0.55500001 -3.0467982e+38
-0.10746829 0.038430791 0.55500001 -3.0467982e+38
-0.10656976 0.038430791 0.55500001 -3.0467982e+38
-0.10567123 0.038430791 0.55500001 -3.0600911e+38
-0.1047727 0.038430791 0.55500001 -3.0600911e+38
-0.10297564 0.038430791 0.55500001 -2.9935253e+38
-0.10189319 0.038361546 0.55400002 -2.9801808e+38
-0.10099627 0.038361546 0.55400002 -2.9801808e+38
-0.099202447 0.038361546 0.55400002 -2.9671496e+38
-0.093692057 0.037946075 0.54800004 -1.7206008e+38
-0.092804857 0.037946075 0.54800004 -1.8807337e+38
-0.091030464 0.037946075 0.54800004 -1.8027555e+38
-0.089978777 0.037876833 0.54700005 -1.7101815e+38
-0.089093193 0.037876833 0.54700005 -1.7636113e+38
-0.087322034 0.037876833 0.54700005 -1.7109123e+38
-0.086436458 0.037876833 0.54700005 -1.9520957e+38
-0.085550882 0.037876833 0.54700005 -1.8186537e+38
-0.08451052 0.037807588 0.546 -1.7118976e+38
-0.082742594 0.037807588 0.546 -1.8721344e+38
-0.081858635 0.037807588 0.546 -1.7115332e+38
-0.080974676 0.037807588 0.546 -1.711639e+38
-0.16392328 0.036494777 0.51500005 -2.507378e+38
-0.16225573 0.036494777 0.51500005 -2.427728e+38
-0.16142195 0.036494777 0.51500005 -2.3879035e+38
-0.1609 0.036565639 0.51600003 -2.3879035e+38
-0.16037482 0.036636502 0.51700002 -2.3083055e+38
-0.15900776 0.036707368 0.51800001 -2.2281409e+38
-0.15847449 0.03677823 0.51900005 -1.8144644e+38
-0.15793796 0.036849093 0.52000004 -1.7066802e+38
-0.15770032 0.036990821 0.52200001 -1.7066802e+38
-0.15630896 0.037061684 0.523 -1.70606e+38
-0.1557595 0.037132546 0.52400005 -1.706008e+38
-0.12159329 0.037061684 0.523 -2.0814738e+38
-0.12074657 0.037061684 0.523 -1.9079965e+38
-0.12012909 0.037132546 0.52400005 -1.7201885e+38
-0.11950839 0.037203413 0.52500004 -1.7063228e+38
-0.11780847 0.037203413 0.52500004 -1.7064279e+38
-0.11692924 0.039187592 0.55300003 -2.3322443e+38
-0.11513866 0.039187592 0.55300003 -2.6369771e+38
-0.11444995 0.039258458 0.55400002 -2.7681293e+38
-0.11355303 0.039258458 0.55400002 -2.7547849e+38
-0.11265612 0.039258458 0.55400002 -3.0205783e+38
-0.1108623 0.039258458 0.55400002 -3.0202656e+38
-0.11036237 0.039400183 0.55600005 -3.03361e+38
-0.10946222 0.039400183 0.55600005 -3.0733828e+38
-0.10766193 0.039400183 0.55600005 -3.0733828e+38
-0.10676178 0.039400183 0.55600005 -3.0733828e+38
-0.10567123 0.039329324 0.55500001 -3.0601426e+38
-0.1047727 0.039329324 0.55500001 -3.0601426e+38
-0.10297564 0.039329324 0.55500001 -3.0467982e+38
-0.10226103 0.039400183 0.55600005 -2.9803364e+38
-0.10136087 0.039400183 0.55600005 -2.9803364e+38
-0.099560574 0.039400183 0.55600005 -2.9672011e+38
-0.093692057 0.038833275 0.54800004 -1.8139066e+38
-0.092804857 0.038833275 0.54800004 -1.8405954e+38
-0.091030464 0.038833275 0.54800004 -1.8159427e+38
-0.089978777 0.038762413 0.54700005 -1.7100244e+38
-0.089093193 0.038762413 0.54700005 -1.7368695e+38
-0.087322034 0.038762413 0.54700005 -1.7505802e+38
-0.086436458 0.038762413 0.54700005 -2.0720378e+38
-0.085550882 0.038762413 0.54700005 -1.9385958e+38
-0.084665298 0.038762413 0.54700005 -1.712054e+38
-0.082742594 0.038691547 0.546 -1.9655438e+38
-0.081858635 0.038691547 0.546 -1.7116374e+38
-0.080974676 0.038691547 0.546 -1.7115875e+38
-0.16277283 0.038088217 0.514 -2.3745083e+38
-0.16194068 0.038088217 0.514 -2.4011972e+38
-0.16142195 0.038162321 0.51500005 -2.4011967e+38
-0.16058819 0.038162321 0.51500005 -2.4011967e+38
-0.15922922 0.038236421 0.51600003 -2.3612676e+38
-0.15900776 0.038384624 0.51800001 -2.2281939e+38
-0.15847449 0.038458724 0.51900005 -1.8412061e+38
-0.15763424 0.038458724 0.51900005 -1.7066279e+38
-0.15709609 0.038532827 0.52000004 -1.7065757e+38
-0.15571122 0.038606927 0.52100003 -1.7060591e+38
-0.15546225 0.038755134 0.523 -1.7058508e+38
-0.12328674 0.038755134 0.523 -1.7057474e+38
-0.12159329 0.038755134 0.523 -1.7726783e+38
-0.1205157 0.03868103 0.52200001 -1.7459895e+38
-0.11967059 0.03868103 0.52200001 -1.7062697e+38
-0.11905312 0.038755134 0.523 -1.7062697e+38
-0.11758406 0.038829233 0.52400005 -1.706323e+38
-0.11695851 0.038903337 0.52500004 -1.7063758e+38
-0.11782453 0.040978178 0.55300003 -2.6916557e+38
-0.11692924 0.040978178 0.55300003 -2.504834e+38
-0.11534686 0.041052282 0.55400002 -2.5832857e+38
-0.11444995 0.041052282 0.55400002 -2.8479355e+38
-0.11375801 0.041126385 0.55500001 -2.8079023e+38
-0.11285948 0.041126385 0.55500001 -2.9805983e+38
-0.11126252 0.041200485 0.55600005 -2.9937859e+38
-0.11036237 0.041200485 0.55600005 -2.9937859e+38
-0.10946222 0.041200485 0.55600005 -3.0733313e+38
-0.10875734 0.041274585 0.55700004 -3.0866757e+38
-0.1069538 0.041274585 0.55700004 -3.0867272e+38
-0.10586163 0.041200485 0.55600005 -3.0867272e+38
-0.10496148 0.041200485 0.55600005 -3.0733828e+38
-0.10316118 0.041200485 0.55600005 -3.0601422e+38
-0.10226103 0.041200485 0.55600005 -3.0202652e+38
-0.10136087 0.041200485 0.55600005 -3.0069208e+38
-0.099560574 0.041200485 0.55600005 -3.0204747e+38
-0.092974216 0.040681772 0.54900002 -1.9337961e+38
-0.091196582 0.040681772 0.54900002 -1.8954356e+38
-0.090143263 0.040607668 0.54800004 -1.723212e+38
-0.089093193 0.040533572 0.54700005 -1.7632452e+38
-0.087322034 0.040533572 0.54700005 -1.7102862e+38
-0.086436458 0.040533572 0.54700005 -1.8051537e+38
-0.085550882 0.040533572 0.54700005 -1.8318421e+38
-0.084665298 0.040533572 0.54700005 -1.7123148e+38
-0.082894139 0.040533572 0.54700005 -1.7656923e+38
-0.081858635 0.040459469 0.546 -1.8057249e+38
-0.080974676 0.040459469 0.546 -1.7114305e+38
-0.16194068 0.038920369 0.514 -2.3878542e+38
-0.16110852 0.038920369 0.514 -2.3745098e+38
-0.16058819 0.038996093 0.51500005 -2.4011986e+38
-0.15892065 0.038996093 0.51500005 -2.3745613e+38
-0.15900776 0.039223254 0.51800001 -2.2280894e+38
-0.15847449 0.039298974 0.51900005 -1.9345125e+38
-0.15763424 0.039298974 0.51900005 -1.7066273e+38
-0.15709609 0.039374694 0.52000004 -1.7066273e+38
-0.15571122 0.039450414 0.52100003 -1.7059547e+38
-0.15486774 0.039450414 0.52100003 -1.7058504e+38
-0.12413347 0.039601859 0.523 -1.7059553e+38
-0.12328674 0.039601859 0.523 -1.7059557e+38
-0.12136081 0.039526135 0.52200001 -1.7059561e+38
-0.1205157 0.039526135 0.52200001 -1.7060604e+38
-0.11967059 0.039526135 0.52200001 -1.7328023e+38
-0.11798038 0.039526135 0.52200001 -1.7329078e+38
-0.11735968 0.039601859 0.523 -1.7195634e+38
-0.11673573 0.039677575 0.52400005 -1.7063751e+38
-0.11588738 0.039677575 0.52400005 -1.9468351e+38
-0.11735214 0.042024914 0.55500001 -2.4915411e+38
-0.11555507 0.042024914 0.55500001 -2.5164597e+38
-0.11486313 0.042100634 0.55600005 -2.8479355e+38
-0.11396298 0.042100634 0.55600005 -2.8212467e+38
-0.11326618 0.042176355 0.55700004 -2.9540656e+38
-0.11146265 0.042176355 0.55700004 -3.0071828e+38
-0.11056088 0.042176355 0.55700004 -2.9671496e+38
-0.10965911 0.042176355 0.55700004 -3.0467471e+38
-0.10875734 0.042176355 0.55700004 -3.0600915e+38
-0.10714582 0.042252075 0.55800003 -3.0866761e+38
-0.10605203 0.042176355 0.55700004 -3.0867272e+38
-0.10496148 0.042100634 0.55600005 -3.0733828e+38
-0.10316118 0.042100634 0.55600005 -3.086831e+38
-0.10226103 0.042100634 0.55600005 -3.0336096e+38
-0.10154318 0.042176355 0.55700004 -3.0336096e+38
-0.10064141 0.042176355 0.55700004 -3.0069737e+38
-0.093651623 0.04187347 0.55300003 -1.9869125e+38
-0.092420869 0.041722029 0.551 -1.7082484e+38
-0.090307765 0.041570589 0.54900002 -1.7097104e+38
-0.089256071 0.041494869 0.54800004 -1.7897768e+38
-0.087322034 0.041419148 0.54700005 -1.7237342e+38
-0.086436458 0.041419148 0.54700005 -1.7381204e+38
-0.085550882 0.041419148 0.54700005 -1.8715632e+38
-0.084665298 0.041419148 0.54700005 -1.7121065e+38
-0.082894139 0.041419148 0.54700005 -1.8859978e+38
-0.082008563 0.041419148 0.54700005 -1.7925884e+38
-0.08112298 0.041419148 0.54700005 -1.7114825e+38
-0.16225573 0.039829865 0.51500005 -2.4545798e+38
-0.16142195 0.039829865 0.51500005 -2.4812691e+38
-0.16058819 0.039829865 0.51500005 -2.3878582e+38
-0.15892065 0.039829865 0.51500005 -2.3878546e+38
-0.15870081 0.039984543 0.51700002 -2.2947064e+38
-0.15816914 0.040061884 0.51800001 -2.0411627e+38
-0.15763424 0.040139221 0.51900005 -1.7064707e+38
-0.156794 0.040139221 0.51900005 -1.7064707e+38
-0.15541236 0.040216561 0.52000004 -1.7059015e+38
-0.15486774 0.040293898 0.52100003 -1.7057464e+38
-0.12413347 0.04044858 0.523 -1.813387e+38
-0.12328674 0.04044858 0.523 -1.8536289e+38
-0.12136081 0.040371239 0.52200001 -1.7063202e+38
-0.12028482 0.040293898 0.52100003 -1.7067372e+38
-0.11944133 0.040293898 0.52100003 -1.7061145e+38
-0.11775436 0.040293898 0.52100003 -1.7062719e+38
-0.11735968 0.04044858 0.523 -1.7062719e+38
-0.11651295 0.04044858 0.523 -1.7062188e+38
-0.11588738 0.040525917 0.52400005 -2.0536424e+38
-0.11687326 0.043078125 0.55700004 -2.7162613e+38
-0.11506972 0.043078125 0.55700004 -2.8478312e+38
-0.11416795 0.043078125 0.55700004 -2.8478312e+38
-0.11346953 0.043155462 0.55800003 -2.9408253e+38
-0.11166275 0.043155462 0.55800003 -2.980494e+38
-0.11075936 0.043155462 0.55800003 -2.9538052e+38
-0.10985598 0.043155462 0.55800003 -3.0467471e+38
-0.10895259 0.043155462 0.55800003 -3.0600915e+38
-0.10714582 0.043155462 0.55800003 -3.0866761e+38
-0.10605203 0.043078125 0.55700004 -3.0733828e+38
-0.10515026 0.043078125 0.55700004 -3.0600384e+38
-0.10334672 0.043078125 0.55700004 -3.0867268e+38
-0.10244495 0.043078125 0.55700004 -3.0601422e+38
-0.10172549 0.043155462 0.55800003 -3.0601422e+38
-0.1008221 0.043155462 0.55800003 -3.0202141e+38
-0.094329029 0.043078125 0.55700004 -2.0264257e+38
-0.092756331 0.042768765 0.55300003 -1.7078835e+38
-0.090636753 0.042614087 0.551 -1.7096061e+38
-0.089418948 0.042459406 0.54900002 -1.7897768e+38
-0.08836887 0.042382065 0.54800004 -1.7102852e+38
-0.086436458 0.042304728 0.54700005 -1.7107026e+38
-0.085550882 0.042304728 0.54700005 -1.9380246e+38
-0.084665298 0.042304728 0.54700005 -1.8324133e+38
-0.082894139 0.042304728 0.54700005 -1.7792442e+38
-0.082008563 0.042304728 0.54700005 -1.7659e+38
-0.08112298 0.042304728 0.54700005 -1.7114303e+38
-0.16225573 0.040663637 0.51500005 -2.6545397e+38
-0.16142195 0.040663637 0.51500005 -2.6279555e+38
-0.16058819 0.040663637 0.51500005 -2.5478891e+38
-0.15892065 0.040663637 0.51500005 -2.3745641e+38
-0.15870081 0.040821552 0.51700002 -2.3079983e+38
-0.15816914 0.040900514 0.51800001 -2.067799e+38
-0.1573305 0.040900514 0.51800001 -1.7062614e+38
-0.156794 0.040979467 0.51900005 -1.7063656e+38
-0.15511349 0.040979467 0.51900005 -1.705849e+38
-0.15457049 0.041058429 0.52000004 -1.7056939e+38
-0.12498019 0.041295305 0.523 -2.8412171e+38
-0.12413347 0.041295305 0.523 -2.8412171e+38
-0.12328674 0.041295305 0.523 -2.7350345e+38
-0.12136081 0.041216344 0.52200001 -2.6415214e+38
-0.12028482 0.041137386 0.52100003 -2.1210896e+38
-0.11944133 0.041137386 0.52100003 -1.7059589e+38
-0.11775436 0.041137386 0.52100003 -1.7063764e+38
-0.11713528 0.041216344 0.52200001 -1.7063242e+38
-0.11651295 0.041295305 0.523 -1.7065822e+38
-0.11566623 0.041295305 0.523 -2.0005762e+38
-0.11750273 0.045123391 0.56 -2.7557215e+38
-0.11527631 0.044962239 0.55800003 -2.8344868e+38
-0.11437292 0.044962239 0.55800003 -2.8478312e+38
-0.11346953 0.044962239 0.55800003 -2.954066e+38
-0.11186286 0.045042817 0.55900002 -3.020267e+38
-0.11095785 0.045042817 0.55900002 -3.020267e+38
-0.11005285 0.045042817 0.55900002 -3.0202145e+38
-0.10914784 0.045042817 0.55900002 -3.0202145e+38
-0.10733783 0.045042817 0.55900002 -3.0600915e+38
-0.10624243 0.044962239 0.55800003 -3.0467467e+38
-0.10515026 0.04488166 0.55700004 -3.0334023e+38
-0.10353226 0.044962239 0.55800003 -3.0334538e+38
-0.10262887 0.044962239 0.55800003 -3.0601422e+38
-0.10172549 0.044962239 0.55800003 -3.0467978e+38
-0.10100278 0.045042817 0.55900002 -3.03361e+38
-0.094498381 0.044962239 0.55800003 -2.1723803e+38
-0.093427263 0.04488166 0.55700004 -1.7074134e+38
-0.09096574 0.044559352 0.55300003 -1.7495349e+38
-0.089418948 0.04423704 0.54900002 -1.7628793e+38
-0.08836887 0.044156462 0.54800004 -1.7232663e+38
-0.08659447 0.044156462 0.54800004 -1.7102357e+38
-0.085707277 0.044156462 0.54800004 -1.9240054e+38
-0.084820077 0.044156462 0.54800004 -1.7116396e+38
-0.082894139 0.044075888 0.54700005 -1.7124708e+38
-0.082008563 0.044075888 0.54700005 -1.7792442e+38
-0.08112298 0.044075888 0.54700005 -1.7119514e+38
-0.16257079 0.042413373 0.51600003 -2.2414914e+38
-0.16142195 0.042331178 0.51500005 -2.1343695e+38
-0.16058819 0.042331178 0.51500005 -2.6281125e+38
-0.15892065 0.042331178 0.51500005 -2.4274736e+38
-0.15839383 0.042413373 0.51600003 -2.2944977e+38
-0.15816914 0.04257777 0.51800001 -2.107676e+38
-0.1573305 0.04257777 0.51800001 -1.706209e+38
-0.156794 0.042659964 0.51900005 -1.7063133e+38
-0.15511349 0.042659964 0.51900005 -1.7057969e+38
-0.15427324 0.042659964 0.51900005 -1.7056419e+38
-0.12498019 0.042988751 0.523 -2.7344615e+38
-0.12413347 0.042988751 0.523 -2.7478059e+38
-0.12328674 0.042988751 0.523 -2.1211403e+38
-0.12136081 0.042906553 0.52200001 -1.7072609e+38
-0.12028482 0.042824358 0.52100003 -1.706896e+38
-0.11944133 0.042824358 0.52100003 -1.706325e+38
-0.11775436 0.042824358 0.52100003 -1.7064293e+38
-0.11713528 0.042906553 0.52200001 -1.7065335e+38
-0.11651295 0.042988751 0.523 -1.8675988e+38
-0.11708308 0.045865625 0.55800003 -2.7156362e+38
-0.11527631 0.045865625 0.55800003 -2.8344868e+38
-0.11457788 0.045947824 0.55900002 -2.8478312e+38
-0.11367287 0.045947824 0.55900002 -2.954066e+38
-0.11186286 0.045947824 0.55900002 -2.9937344e+38
-0.11095785 0.045947824 0.55900002 -2.9937344e+38
-0.11005285 0.045947824 0.55900002 -3.0335589e+38
-0.10914784 0.045947824 0.55900002 -3.0335589e+38
-0.10733783 0.045947824 0.55900002 -3.0335589e+38
-0.10643282 0.045947824 0.55900002 -3.0068697e+38
-0.10533904 0.045865625 0.55800003 -2.9935253e+38
-0.10353226 0.045865625 0.55800003 -3.0334538e+38
-0.10262887 0.045865625 0.55800003 -3.0601426e+38
-0.10190779 0.045947824 0.55900002 -3.0601426e+38
-0.10100278 0.045947824 0.55900002 -3.0602988e+38
-0.09466774 0.045947824 0.55900002 -2.2653216e+38
-0.093594998 0.045865625 0.55800003 -1.8138559e+38
-0.091130242 0.045536842 0.55400002 -1.7627227e+38
-0.089581825 0.045208056 0.55000001 -1.7760671e+38
-0.088530131 0.045125857 0.54900002 -1.7365061e+38
-0.08659447 0.045043662 0.54800004 -1.7102355e+38
-0.085707277 0.045043662 0.54800004 -1.723632e+38
-0.084820077 0.045043662 0.54800004 -1.710442e+38
-0.083045676 0.045043662 0.54800004 -1.7123148e+38
-0.082158484 0.045043662 0.54800004 -1.9259265e+38
-0.08112298 0.044961467 0.54700005 -1.7918614e+38
-0.16225573 0.04316495 0.51500005 -2.094703e+38
-0.1617354 0.043248765 0.51600003 -2.1610579e+38
-0.16058819 0.04316495 0.51500005 -2.494668e+38
-0.15892065 0.04316495 0.51500005 -2.4141809e+38
-0.15839383 0.043248765 0.51600003 -2.3076859e+38
-0.1578638 0.04333258 0.51700002 -2.1075198e+38
-0.1573305 0.0434164 0.51800001 -1.7061571e+38
-0.15565325 0.0434164 0.51800001 -1.705745e+38
-0.15511349 0.043500211 0.51900005 -1.7056928e+38
-0.15427324 0.043500211 0.51900005 -1.7055379e+38
-0.12521915 0.043919288 0.52400005 -2.5876209e+38
-0.12437081 0.043919288 0.52400005 -2.854509e+38
-0.12305102 0.043751661 0.52200001 -2.8948035e+38
-0.12136081 0.043751661 0.52200001 -1.7070518e+38
-0.12028482 0.043667842 0.52100003 -1.7067911e+38
-0.11944133 0.043667842 0.52100003 -1.7063778e+38
-0.11798038 0.043751661 0.52200001 -1.7064816e+38
-0.11713528 0.043751661 0.52200001 -1.706638e+38
-0.11735214 0.04651757 0.55500001 -2.5040006e+38
-0.11687326 0.0466852 0.55700004 -2.7020315e+38
-0.11527631 0.046769015 0.55800003 -2.8610195e+38
-0.11457788 0.046852831 0.55900002 -2.8743639e+38
-0.11367287 0.046852831 0.55900002 -2.9540656e+38
-0.11186286 0.046852831 0.55900002 -3.020267e+38
-0.11095785 0.046852831 0.55900002 -3.020267e+38
-0.11005285 0.046852831 0.55900002 -3.0335589e+38
-0.10914784 0.046852831 0.55900002 -3.0335589e+38
-0.10733783 0.046852831 0.55900002 -3.0335589e+38
-0.10643282 0.046852831 0.55900002 -3.0334027e+38
-0.10552782 0.046852831 0.55900002 -3.0200583e+38
-0.10462281 0.046852831 0.55900002 -3.006765e+38
-0.1028128 0.046852831 0.55900002 -3.03361e+38
-0.10190779 0.046852831 0.55900002 -3.0602988e+38
-0.10118347 0.046936642 0.56 -3.0737473e+38
-0.09466774 0.046852831 0.55900002 -2.4912908e+38
-0.093762733 0.046852831 0.55900002 -1.8803173e+38
-0.092359379 0.046601385 0.55600005 -1.8669729e+38
-0.089907572 0.046266124 0.55200005 -1.8025476e+38
-0.088691384 0.046098493 0.55000001 -1.7097647e+38
-0.086752497 0.046014674 0.54900002 -1.7100781e+38
-0.085707277 0.045930859 0.54800004 -1.7100781e+38
-0.084820077 0.045930859 0.54800004 -1.710286e+38
-0.083045676 0.045930859 0.54800004 -1.7786211e+38
-0.082158484 0.045930859 0.54800004 -1.7919653e+38
-0.081271283 0.045930859 0.54800004 -1.7112245e+38
-0.080384083 0.045930859 0.54800004 -1.7110681e+38
-0.16225573 0.043998722 0.51500005 -2.3614345e+38
-0.16142195 0.043998722 0.51500005 -2.1344723e+38
-0.16058819 0.043998722 0.51500005 -2.2946052e+38
-0.15922922 0.044084158 0.51600003 -2.3743554e+38
-0.15839383 0.044084158 0.51600003 -2.3210303e+38
-0.1578638 0.04416959 0.51700002 -2.1875863e+38
-0.1573305 0.044255026 0.51800001 -1.7059484e+38
-0.15565325 0.044255026 0.51800001 -1.7056928e+38
-0.15511349 0.044340461 0.51900005 -1.7056407e+38
-0.15427324 0.044340461 0.51900005 -1.7053821e+38
-0.12498019 0.044682201 0.523 -2.7347213e+38
-0.12389612 0.044596765 0.52200001 -2.8414765e+38
-0.12305102 0.044596765 0.52200001 -2.9483884e+38
-0.12112831 0.044511329 0.52100003 -2.2943093e+38
-0.12028482 0.044511329 0.52100003 -1.7066341e+38
-0.11944133 0.044511329 0.52100003 -1.7064295e+38
-0.11798038 0.044596765 0.52200001 -1.7064812e+38
-0.11735968 0.044682201 0.523 -1.7066376e+38
-0.11576328 0.047501534 0.55600005 -2.675134e+38
-0.11527631 0.047672402 0.55800003 -2.8874476e+38
-0.11457788 0.047757838 0.55900002 -2.9141365e+38
-0.11367287 0.047757838 0.55900002 -2.9805455e+38
-0.11186286 0.047757838 0.55900002 -3.0069741e+38
-0.11095785 0.047757838 0.55900002 -3.0203185e+38
-0.11005285 0.047757838 0.55900002 -3.0600915e+38
-0.10914784 0.047757838 0.55900002 -3.0334027e+38
-0.10733783 0.047757838 0.55900002 -3.0467471e+38
-0.10643282 0.047757838 0.55900002 -3.0334027e+38
-0.10552782 0.047757838 0.55900002 -3.0067139e+38
-0.10462281 0.047757838 0.55900002 -3.0067135e+38
-0.1028128 0.047757838 0.55900002 -3.0335585e+38
-0.10190779 0.047757838 0.55900002 -3.0735917e+38
-0.10118347 0.04784327 0.56 -3.0870401e+38
-0.093930461 0.04784327 0.56 -1.8803173e+38
-0.092857726 0.047757838 0.55900002 -1.9203505e+38
-0.090396203 0.047416102 0.55500001 -1.8156829e+38
-0.089013897 0.047159798 0.55200005 -1.7097637e+38
-0.086910516 0.046988927 0.55000001 -1.7233179e+38
-0.085863672 0.046903495 0.54900002 -1.7233179e+38
-0.084974855 0.046903495 0.54900002 -1.7098696e+38
-0.083045676 0.046818059 0.54800004 -1.7377052e+38
-0.082158484 0.046818059 0.54800004 -1.7107557e+38
-0.081271283 0.046818059 0.54800004 -1.7107046e+38
-0.080384083 0.046818059 0.54800004 -1.7107046e+38
-0.16392328 0.045666266 0.51500005 -2.3743615e+38
-0.16225573 0.045666266 0.51500005 -2.1480798e+38
-0.16142195 0.045666266 0.51500005 -2.1348337e+38
-0.1609 0.045754939 0.51600003 -2.2015558e+38
-0.15922922 0.045754939 0.51600003 -2.2814121e+38
-0.15839383 0.045754939 0.51600003 -2.2945492e+38
-0.1578638 0.045843612 0.51700002 -2.3078936e+38
-0.15702678 0.045843612 0.51700002 -1.7059474e+38
-0.15565325 0.045932285 0.51800001 -1.7056405e+38
-0.15481462 0.045932285 0.51800001 -1.7055363e+38
-0.15427324 0.046020955 0.51900005 -1.705329e+38
-0.12558633 0.046286974 0.52200001 -2.507191e+38
-0.12474123 0.046286974 0.52200001 -2.6819158e+38
-0.12389612 0.046286974 0.52200001 -2.2682393e+38
-0.12305102 0.046286974 0.52200001 -1.7749149e+38
-0.12112831 0.046198301 0.52100003 -1.7067928e+38
-0.12028482 0.046198301 0.52100003 -1.7067928e+38
-0.11944133 0.046198301 0.52100003 -1.7064816e+38
-0.11798038 0.046286974 0.52200001 -1.7063772e+38
-0.11735968 0.046375647 0.523 -1.7065857e+38
-0.11292338 0.046641663 0.52600002 -2.4915433e+38
-0.11576328 0.049301833 0.55600005 -2.7281472e+38
-0.11527631 0.049479179 0.55800003 -2.9139273e+38
-0.11457788 0.049567852 0.55900002 -2.9406162e+38
-0.11367287 0.049567852 0.55900002 -2.9937855e+38
-0.11186286 0.049567852 0.55900002 -3.0069737e+38
-0.11095785 0.049567852 0.55900002 -3.0203181e+38
-0.11005285 0.049567852 0.55900002 -3.0335585e+38
-0.10914784 0.049567852 0.55900002 -3.0068697e+38
-0.10733783 0.049567852 0.55900002 -3.0202145e+38
-0.10643282 0.049567852 0.55900002 -3.0334027e+38
-0.10552782 0.049567852 0.55900002 -3.0334027e+38
-0.10462281 0.049567852 0.55900002 -3.0067139e+38
-0.10299671 0.049656522 0.56 -3.0735921e+38
-0.10209009 0.049656522 0.56 -3.1002809e+38
-0.10136415 0.049745195 0.56100005 -3.1135738e+38
-0.10063498 0.049833868 0.56200004 -3.1269182e+38
-0.093189947 0.049745195 0.56100005 -1.8540964e+38
-0.091210581 0.049656522 0.56 -1.8154219e+38
-0.089497671 0.049213164 0.55500001 -1.7095546e+38
-0.087068535 0.048858471 0.551 -1.7232128e+38
-0.085863672 0.048681129 0.54900002 -1.7098163e+38
-0.084974855 0.048681129 0.54900002 -1.7100246e+38
-0.083197221 0.048681129 0.54900002 -1.7100783e+38
-0.082308404 0.048681129 0.54900002 -1.7635602e+38
-0.081271283 0.048592452 0.54800004 -1.7103925e+38
-0.080384083 0.048592452 0.54800004 -1.7103925e+38
-0.16539688 0.046680622 0.51700002 -2.3478295e+38
-0.16424157 0.046590328 0.51600003 -2.1610078e+38
-0.16257079 0.046590328 0.51600003 -2.1215987e+38
-0.1617354 0.046590328 0.51600003 -2.1348337e+38
-0.1609 0.046590328 0.51600003 -2.2015558e+38
-0.15922922 0.046590328 0.51600003 -2.2547754e+38
-0.15839383 0.046590328 0.51600003 -2.2546722e+38
-0.15755844 0.046590328 0.51600003 -2.281361e+38
-0.15702678 0.046680622 0.51700002 -1.7059989e+38
-0.15565325 0.046770915 0.51800001 -1.705588e+38
-0.15481462 0.046770915 0.51800001 -1.7055359e+38
-0.15397599 0.046770915 0.51800001 -1.7054332e+38
-0.12727654 0.047132079 0.52200001 -1.7057983e+38
-0.12558633 0.047132079 0.52200001 -1.7329041e+38
-0.12474123 0.047132079 0.52200001 -2.0538972e+38
-0.12365876 0.047041785 0.52100003 -2.7344619e+38
-0.12281527 0.047041785 0.52100003 -2.6418849e+38
-0.12112831 0.047041785 0.52100003 -1.70674e+38
-0.12028482 0.047041785 0.52100003 -1.7067921e+38
-0.11944133 0.047041785 0.52100003 -1.7063776e+38
-0.11775436 0.047041785 0.52100003 -1.7063766e+38
-0.11713528 0.047132079 0.52200001 -1.7600148e+38
-0.11249401 0.047312662 0.52400005 -2.5047831e+38
-0.11228487 0.047583535 0.52700001 -2.6632477e+38
-0.11576328 0.050201982 0.55600005 -2.7679202e+38
-0.11527631 0.050382566 0.55800003 -2.9538563e+38
-0.11457788 0.050472859 0.55900002 -2.9538563e+38
-0.11367287 0.050472859 0.55900002 -2.9936293e+38
-0.11186286 0.050472859 0.55900002 -3.0069737e+38
-0.11095785 0.050472859 0.55900002 -3.0203181e+38
-0.11005285 0.050472859 0.55900002 -3.0202141e+38
-0.1093431 0.050563145 0.56 -3.0068697e+38
-0.10752986 0.050563145 0.56 -3.0068185e+38
-0.10662322 0.050563145 0.56 -3.0466956e+38
-0.10571659 0.050563145 0.56 -3.0333512e+38
-0.10480997 0.050563145 0.56 -3.0200068e+38
-0.10299671 0.050563145 0.56 -3.0735406e+38
-0.1022724 0.050653439 0.56100005 -3.1135738e+38
-0.10154483 0.050743733 0.56200004 -3.1269186e+38
-0.10081404 0.050834022 0.56300002 -3.1269186e+38
-0.093688287 0.050924316 0.56400001 -1.8539398e+38
-0.092775188 0.050924316 0.56400001 -1.7083008e+38
-0.09046521 0.050653439 0.56100005 -1.7093453e+38
-0.088599145 0.050111692 0.55500001 -1.7495349e+38
-0.086176477 0.049750526 0.551 -1.7097633e+38
-0.085129641 0.049660236 0.55000001 -1.7100246e+38
-0.083348766 0.049660236 0.55000001 -1.7101308e+38
-0.082308404 0.049569946 0.54900002 -1.7635606e+38
-0.081419587 0.049569946 0.54900002 -1.7103921e+38
-0.08053077 0.049569946 0.54900002 -1.7103921e+38
-0.1657168 0.047609542 0.51800001 -2.3212968e+38
-0.16455987 0.047517631 0.51700002 -2.227886e+38
-0.16257079 0.047425721 0.51600003 -2.1081488e+38
-0.1617354 0.047425721 0.51600003 -2.2013467e+38
-0.1609 0.047425721 0.51600003 -2.2280355e+38
-0.15922922 0.047425721 0.51600003 -2.2414306e+38
-0.15839383 0.047425721 0.51600003 -2.2546722e+38
-0.15755844 0.047425721 0.51600003 -2.2413278e+38
-0.15702678 0.047517631 0.51700002 -1.7059985e+38
-0.15535276 0.047517631 0.51700002 -1.7056395e+38
-0.15481462 0.047609542 0.51800001 -1.7055874e+38
-0.15397599 0.047609542 0.51800001 -1.7054847e+38
-0.13175398 0.048069093 0.523 -2.6274975e+38
-0.12727654 0.047977183 0.52200001 -2.4134682e+38
-0.12558633 0.047977183 0.52200001 -1.7863329e+38
-0.12474123 0.047977183 0.52200001 -1.7066317e+38
-0.12365876 0.047885273 0.52100003 -2.0802751e+38
-0.12281527 0.047885273 0.52100003 -2.6816591e+38
-0.12112831 0.047885273 0.52100003 -1.7066879e+38
-0.12028482 0.047885273 0.52100003 -1.7067921e+38
-0.11944133 0.047885273 0.52100003 -1.7064293e+38
-0.11775436 0.047885273 0.52100003 -1.7063762e+38
-0.11691087 0.047885273 0.52100003 -1.7867032e+38
-0.11301232 0.046966169 0.51100004 -2.0402901e+38
-0.11152641 0.046690438 0.50800002 -2.2663564e+38
-0.11206465 0.047977183 0.52200001 -2.4912829e+38
-0.1120718 0.048344824 0.52600002 -2.7164164e+38
-0.11576328 0.051102132 0.55600005 -2.8210374e+38
-0.11527631 0.051285952 0.55800003 -2.9405119e+38
-0.11457788 0.051377866 0.55900002 -2.9271675e+38
-0.11367287 0.051377866 0.55900002 -2.9936293e+38
-0.11186286 0.051377866 0.55900002 -3.0202656e+38
-0.11095785 0.051377866 0.55900002 -3.0202656e+38
-0.11005285 0.051377866 0.55900002 -3.0335585e+38
-0.1093431 0.051469773 0.56 -3.0068697e+38
-0.10752986 0.051469773 0.56 -3.0068701e+38
-0.10662322 0.051469773 0.56 -3.0467471e+38
-0.10571659 0.051469773 0.56 -3.0334027e+38
-0.10480997 0.051469773 0.56 -3.0200068e+38
-0.10318064 0.051561683 0.56100005 -3.1000736e+38
-0.1022724 0.051561683 0.56100005 -3.1534512e+38
-0.10154483 0.051653598 0.56200004 -3.1269186e+38
-0.10081404 0.051745504 0.56300002 -3.1269186e+38
-0.094020523 0.052021235 0.56600004 -1.9602265e+38
-0.093104184 0.052021235 0.56600004 -1.7083001e+38
-0.089078054 0.051285952 0.55800003 -1.7495341e+38
-0.086332873 0.050734494 0.55200005 -1.7098148e+38
-0.085129641 0.050550673 0.55000001 -1.7099724e+38
-0.083348766 0.050550673 0.55000001 -1.7101306e+38
-0.082458332 0.050550673 0.55000001 -1.710287e+38
-0.081419587 0.050458763 0.54900002 -1.7107028e+38
-0.08053077 0.050458763 0.54900002 -1.8444075e+38
-0.16687697 0.048541699 0.51900005 -2.4009935e+38
-0.16603673 0.048541699 0.51900005 -2.1745084e+38
-0.16455987 0.048354641 0.51700002 -2.3212968e+38
-0.16288584 0.048354641 0.51700002 -2.1746613e+38
-0.1617354 0.04826111 0.51600003 -2.2147422e+38
-0.1609 0.04826111 0.51600003 -2.241431e+38
-0.15922922 0.04826111 0.51600003 -2.2547229e+38
-0.15839383 0.04826111 0.51600003 -2.2812044e+38
-0.15755844 0.04826111 0.51600003 -2.2411712e+38
-0.15702678 0.048354641 0.51700002 -1.7061535e+38
-0.15535276 0.048354641 0.51700002 -1.7056906e+38
-0.15481462 0.048448171 0.51800001 -1.7056385e+38
-0.13429415 0.048915818 0.523 -2.5604102e+38
-0.13260069 0.048915818 0.523 -2.2676142e+38
-0.13175398 0.048915818 0.523 -2.720649e+38
-0.12558633 0.048822287 0.52200001 -2.6937518e+38
-0.12474123 0.048822287 0.52200001 -2.1340683e+38
-0.12365876 0.048728757 0.52100003 -1.9872798e+38
-0.12281527 0.048728757 0.52100003 -1.9209764e+38
-0.12112831 0.048728757 0.52100003 -1.7064279e+38
-0.12028482 0.048728757 0.52100003 -1.7066885e+38
-0.11944133 0.048728757 0.52100003 -1.7063772e+38
-0.11775436 0.048728757 0.52100003 -1.70648e+38
-0.11691087 0.048728757 0.52100003 -1.7733584e+38
-0.1114206 0.048541699 0.51900005 -2.4911784e+38
-0.083348766 0.051441111 0.55000001 -1.8043743e+38
-0.082458332 0.051441111 0.55000001 -1.7243078e+38
-0.081567898 0.051441111 0.55000001 -2.0315379e+38
-0.080677457 0.051441111 0.55000001 -2.3918313e+38
-0.11687326 0.052997582 0.55700004 -2.88729e+38
-0.11527631 0.053092733 0.55800003 -2.966992e+38
-0.11457788 0.053187877 0.55900002 -2.9536476e+38
-0.11367287 0.053187877 0.55900002 -2.980232e+38
-0.11186286 0.053187877 0.55900002 -3.0069208e+38
-0.11095785 0.053187877 0.55900002 -3.0202652e+38
-0.11024973 0.053283025 0.56 -3.0335585e+38
-0.1093431 0.053283025 0.56 -3.0202141e+38
-0.10752986 0.053283025 0.56 -3.0068697e+38
-0.10662322 0.053283025 0.56 -3.0202141e+38
-0.10571659 0.053283025 0.56 -3.0202141e+38
-0.10480997 0.053283025 0.56 -3.0068697e+38
-0.10318064 0.053378176 0.56100005 -3.0735406e+38
-0.1022724 0.053378176 0.56100005 -3.1269182e+38
-0.10154483 0.053473324 0.56200004 -3.1402634e+38
-0.1009931 0.053663615 0.56400001 -3.126919e+38
-0.0991669 0.053663615 0.56400001 -3.126919e+38
-0.094020523 0.053853914 0.56600004 -2.4264976e+38
-0.09326867 0.053949062 0.56700003 -1.7085606e+38
-0.091110244 0.05375877 0.565 -1.7093441e+38
-0.089237697 0.053187877 0.55900002 -1.7627738e+38
-0.086489275 0.052616987 0.55300003 -1.7363992e+38
-0.085284427 0.052426692 0.551 -1.7098161e+38
-0.16455987 0.050028659 0.51700002 -2.4012576e+38
-0.16288584 0.050028659 0.51700002 -2.2675511e+38
-0.16204885 0.050028659 0.51700002 -2.26786e+38
-0.16121183 0.050028659 0.51700002 -2.2812044e+38
-0.15922922 0.049931891 0.51600003 -2.254774e+38
-0.15839383 0.049931891 0.51600003 -2.3079439e+38
-0.1578638 0.050028659 0.51700002 -2.3479771e+38
-0.15702678 0.050028659 0.51700002 -1.7733947e+38
-0.15535276 0.050028659 0.51700002 -1.7056383e+38
-0.15481462 0.050125431 0.51800001 -1.7054819e+38
-0.13429415 0.050609265 0.523 -2.8143192e+38
-0.13260069 0.050609265 0.523 -2.5214181e+38
-0.13175398 0.050609265 0.523 -2.0937217e+38
-0.13090725 0.050609265 0.523 -1.7065776e+38
-0.12474123 0.050512496 0.52200001 -2.6416236e+38
-0.12365876 0.050415728 0.52100003 -2.5348684e+38
-0.12281527 0.050415728 0.52100003 -2.6684189e+38
-0.12112831 0.050415728 0.52100003 -1.7064802e+38
-0.12028482 0.050415728 0.52100003 -1.7065323e+38
-0.11944133 0.050415728 0.52100003 -1.706325e+38
-0.11775436 0.050415728 0.52100003 -1.7065832e+38
-0.11691087 0.050415728 0.52100003 -1.7734095e+38
-0.11708308 0.05399612 0.55800003 -2.8871858e+38
-0.11527631 0.05399612 0.55800003 -2.966992e+38
-0.11457788 0.054092884 0.55900002 -2.9536476e+38
-0.11367287 0.054092884 0.55900002 -2.980232e+38
-0.11186286 0.054092884 0.55900002 -2.9935764e+38
-0.11095785 0.054092884 0.55900002 -3.0202652e+38
-0.11024973 0.054189652 0.56 -3.0602473e+38
-0.1093431 0.054189652 0.56 -3.0202141e+38
-0.10752986 0.054189652 0.56 -3.0202141e+38
-0.10662322 0.054189652 0.56 -3.0202141e+38
-0.10571659 0.054189652 0.56 -3.0202141e+38
-0.10480997 0.054189652 0.56 -3.0202141e+38
-0.10318064 0.054286424 0.56100005 -3.1002294e+38
-0.1022724 0.054286424 0.56100005 -3.1402626e+38
-0.10154483 0.054383188 0.56200004 -3.1669518e+38
-0.1009931 0.054576717 0.56400001 -3.140263e+38
-0.099342726 0.054673489 0.565 -3.1402634e+38
-0.09860222 0.054770254 0.56600004 -3.0870945e+38
-0.094186626 0.054867022 0.56700003 -2.9334289e+38
-0.09326867 0.054867022 0.56700003 -1.7082997e+38
-0.091110244 0.054673489 0.565 -1.7093441e+38
-0.089237697 0.054092884 0.55900002 -1.7494294e+38
-0.086489275 0.053512279 0.55300003 -1.7230548e+38
-0.085284427 0.05331875 0.551 -1.7098686e+38
-0.083348766 0.053221978 0.55000001 -2.0314859e+38
-0.082458332 0.053221978 0.55000001 -1.9247323e+38
-0.081567898 0.053221978 0.55000001 -2.0451403e+38
-0.080677457 0.053221978 0.55000001 -2.7249172e+38
-0.16455987 0.050865673 0.51700002 -2.5212011e+38
-0.16288584 0.050865673 0.51700002 -2.3340642e+38
-0.16204885 0.050865673 0.51700002 -2.3209774e+38
-0.16121183 0.050865673 0.51700002 -2.3209774e+38
-0.16037482 0.050865673 0.51700002 -2.2679622e+38
-0.15870081 0.050865673 0.51700002 -2.294651e+38
-0.1578638 0.050865673 0.51700002 -2.3480286e+38
-0.15702678 0.050865673 0.51700002 -1.8668567e+38
-0.15535276 0.050865673 0.51700002 -1.7056383e+38
-0.15451576 0.050865673 0.51700002 -1.7054819e+38
-0.13260069 0.051455989 0.523 -2.681551e+38
-0.13175398 0.051455989 0.523 -2.7875769e+38
-0.12281527 0.051259216 0.52100003 -2.1211956e+38
-0.12112831 0.051259216 0.52100003 -1.7064802e+38
-0.12028482 0.051259216 0.52100003 -1.7065323e+38
-0.11944133 0.051259216 0.52100003 -1.7063772e+38
-0.11775436 0.051259216 0.52100003 -1.786805e+38
-0.11691087 0.051259216 0.52100003 -1.786805e+38
-0.11798647 0.054899506 0.55800003 -2.6219651e+38
-0.11708308 0.054899506 0.55800003 -2.8340175e+38
-0.11527631 0.054899506 0.55800003 -2.9802324e+38
-0.11457788 0.054997891 0.55900002 -2.966888e+38
-0.11367287 0.054997891 0.55900002 -2.9935764e+38
-0.11186286 0.054997891 0.55900002 -3.0202656e+38
-0.11095785 0.054997891 0.55900002 -3.0202656e+38
-0.11005285 0.054997891 0.55900002 -3.0335585e+38
-0.1093431 0.055096276 0.56 -3.0202141e+38
-0.10752986 0.055096276 0.56 -3.0335585e+38
-0.10662322 0.055096276 0.56 -3.0202145e+38
-0.10571659 0.055096276 0.56 -3.0202145e+38
-0.10480997 0.055096276 0.56 -3.0202145e+38
-0.10318064 0.055194668 0.56100005 -3.126762e+38
-0.1022724 0.055194668 0.56100005 -3.1667952e+38
-0.10154483 0.05529305 0.56200004 -3.1934841e+38
-0.1009931 0.055489819 0.56400001 -3.1667952e+38
-0.09951856 0.055686597 0.56600004 -3.1934845e+38
-0.098776422 0.055784978 0.56700003 -3.1537119e+38
-0.093433164 0.05588337 0.56800002 -1.8280862e+38
-0.091110244 0.055588212 0.565 -1.7093433e+38
-0.089237697 0.054997891 0.55900002 -1.7494286e+38
-0.086489275 0.054407574 0.55300003 -1.7097619e+38
-0.085439198 0.054309189 0.55200005 -1.7100254e+38
-0.084392369 0.054210804 0.551 -1.723474e+38
-0.082458332 0.054112416 0.55000001 -1.8311653e+38
-0.081567898 0.054112416 0.55000001 -2.5782867e+38
-0.080677457 0.054112416 0.55000001 -2.9243014e+38
-0.1662339 0.051702682 0.51700002 -2.3213995e+38
-0.16539688 0.051702682 0.51700002 -2.3076906e+38
-0.16455987 0.051702682 0.51700002 -2.4011014e+38
-0.16288584 0.051702682 0.51700002 -2.3740449e+38
-0.16204885 0.051702682 0.51700002 -2.3873349e+38
-0.16121183 0.051702682 0.51700002 -2.3873349e+38
-0.16037482 0.051702682 0.51700002 -2.2678056e+38
-0.15870081 0.051702682 0.51700002 -2.2813062e+38
-0.1578638 0.051702682 0.51700002 -2.307995e+38
-0.15702678 0.051702682 0.51700002 -2.0003524e+38
-0.15535276 0.051702682 0.51700002 -1.7055862e+38
-0.15451576 0.051702682 0.51700002 -1.7054298e+38
-0.15367875 0.051702682 0.51700002 -1.7052231e+38
-0.11944133 0.0521027 0.52100003 -1.7064812e+38
-0.11775436 0.0521027 0.52100003 -1.8535782e+38
-0.11888986 0.055802897 0.55800003 -2.741909e+38
-0.11798647 0.055802897 0.55800003 -2.6484981e+38
-0.11708308 0.055802897 0.55800003 -2.833966e+38
-0.11527631 0.055802897 0.55800003 -2.9801808e+38
-0.11457788 0.055902898 0.55900002 -2.9935253e+38
-0.11367287 0.055902898 0.55900002 -2.9935768e+38
-0.11186286 0.055902898 0.55900002 -3.0069212e+38
-0.11095785 0.055902898 0.55900002 -3.0202656e+38
-0.11005285 0.055902898 0.55900002 -3.0335585e+38
-0.10914784 0.055902898 0.55900002 -3.0335585e+38
-0.10752986 0.056002904 0.56 -3.0335589e+38
-0.10662322 0.056002904 0.56 -3.0202145e+38
-0.10571659 0.056002904 0.56 -3.0202145e+38
-0.10480997 0.056002904 0.56 -3.020163e+38
-0.10299671 0.056002904 0.56 -3.1401064e+38
-0.1022724 0.056102913 0.56100005 -3.1667952e+38
-0.10154483 0.056202915 0.56200004 -3.1934841e+38
-0.1009931 0.056402922 0.56400001 -3.1667952e+38
-0.09951856 0.056602936 0.56600004 -3.1934841e+38
-0.098950632 0.056802947 0.56800002 -3.1537115e+38
-0.098031059 0.056802947 0.56800002 -3.1537115e+38
-0.089237697 0.055902898 0.55900002 -1.8025454e+38
-0.086645678 0.055402871 0.55400002 -1.7228457e+38
-0.085439198 0.055202864 0.55200005 -1.7098171e+38
-0.084392369 0.055102859 0.551 -1.7098171e+38
-0.082458332 0.05500285 0.55000001 -1.9779534e+38
-0.081567898 0.05500285 0.55000001 -3.1103933e+38
-0.080677457 0.05500285 0.55000001 -3.0572242e+38
-0.1662339 0.053376697 0.51700002 -2.1616852e+38
-0.16539688 0.053376697 0.51700002 -2.228458e+38
-0.16455987 0.053376697 0.51700002 -2.2418024e+38
-0.16288584 0.053376697 0.51700002 -2.3209774e+38
-0.16204885 0.053376697 0.51700002 -2.4273138e+38
-0.16121183 0.053376697 0.51700002 -2.4273138e+38
-0.16037482 0.053376697 0.51700002 -2.3741439e+38
-0.15870081 0.053376697 0.51700002 -2.3344751e+38
-0.1578638 0.053376697 0.51700002 -2.3344751e+38
-0.15702678 0.053376697 0.51700002 -2.040697e+38
-0.15535276 0.053376697 0.51700002 -1.705689e+38
-0.15451576 0.053376697 0.51700002 -1.7054805e+38
-0.15367875 0.053376697 0.51700002 -1.7050661e+38
-0.15313736 0.053479943 0.51800001 -1.7050661e+38
-0.11888986 0.05760967 0.55800003 -2.7414916e+38
-0.11798647 0.05760967 0.55800003 -2.7148028e+38
-0.11708308 0.05760967 0.55800003 -2.8871347e+38
-0.11548289 0.057712913 0.55900002 -2.9801813e+38
-0.11457788 0.057712913 0.55900002 -3.0068701e+38
-0.11367287 0.057712913 0.55900002 -2.9801813e+38
-0.11186286 0.057712913 0.55900002 -3.0068701e+38
-0.11095785 0.057712913 0.55900002 -3.0202145e+38
-0.11005285 0.057712913 0.55900002 -3.0335589e+38
-0.1093431 0.057816155 0.56 -3.0202145e+38
-0.10733783 0.057712913 0.55900002 -3.0335589e+38
-0.10662322 0.057816155 0.56 -3.0202145e+38
-0.10552782 0.057712913 0.55900002 -3.0335589e+38
-0.10480997 0.057816155 0.56 -3.0735921e+38
-0.10299671 0.057816155 0.56 -3.1136253e+38
-0.1022724 0.057919402 0.56100005 -3.1403141e+38
-0.10154483 0.058022644 0.56200004 -3.1670029e+38
-0.1009931 0.058229126 0.56400001 -3.1670029e+38
-0.09951856 0.058435615 0.56600004 -3.1803473e+38
-0.099124841 0.058745343 0.56900001 -3.167107e+38
-0.098203644 0.058745343 0.56900001 -3.167107e+38
-0.090303957 0.057816155 0.56 -1.7084571e+38
-0.089237697 0.057712913 0.55900002 -1.8420576e+38
-0.08680208 0.057299942 0.55500001 -1.7361901e+38
-0.085439198 0.05699021 0.55200005 -1.709713e+38
-0.084392369 0.056886971 0.551 -1.7231617e+38
-0.082458332 0.056783721 0.55000001 -3.2964852e+38
-0.081567898 0.056783721 0.55000001 nan
-0.080677457 0.056783721 0.55000001 -2.4163301e+38
-0.16823268 0.054318573 0.51800001 -2.0146807e+38
-0.16655542 0.054318573 0.51800001 -2.0949624e+38
-0.16539688 0.054213706 0.51700002 -2.1083579e+38
-0.16455987 0.054213706 0.51700002 -2.0950135e+38
