# .PCD v0.7 - Point Cloud Data file format
VERSION 0.7
FIELDS x y z
SIZE 4 4 4
TYPE F F F
COUNT 1 1 1
WIDTH 286
HEIGHT 1
VIEWPOINT 0 0 0 1 0 0 0
POINTS 286
DATA ascii
0.016153676 -0.011472684 0.29899985
0.024706207 -0.011890093 0.2988297
0.034848146 -0.011593034 0.29842499
0.045213211 -0.011986873 0.29824251
0.05493594 -0.012161481 0.29755294
0.06498272 -0.012147937 0.29653913
0.074988 -0.012339986 0.29625615
0.084150426 -0.012016349 0.29740229
0.090620995 -0.010650091 0.2985
0.0094785448 -0.0087739024 0.29900002
0.015465024 -0.0080466941 0.29899982
0.024983183 -0.0070328657 0.29870194
0.035016164 -0.0061779432 0.29837123
0.045022354 -0.0052169925 0.29791313
0.05492273 -0.0050196378 0.29743308
0.064991914 -0.0049388604 0.29658014
0.074977763 -0.0049073589 0.29583317
0.084872469 -0.0048887897 0.2962347
0.091156237 -0.0042231167 0.29752836
0.048989568 0.0005042436 0.29900002
0.055649541 0.0011728128 0.29899985
0.065799445 0.0022644319 0.2986792
0.075310804 0.0035405892 0.29835066
0.084774397 0.0038118921 0.29814303
0.091401868 0.0034441776 0.29843187
0.089840144 0.021764632 0.29800001
-0.092823446 -0.01149415 0.30823684
-0.084845252 -0.012243453 0.30676743
-0.074867733 -0.012450587 0.30600014
-0.06498187 -0.012512613 0.30509564
-0.054875582 -0.013178557 0.30500719
-0.044821702 -0.013326297 0.30431056
-0.034918223 -0.013380148 0.30358884
-0.024882369 -0.01370618 0.30352718
-0.015024737 -0.013639435 0.30276719
-0.0047950307 -0.013847666 0.30247265
0.0050050062 -0.013902381 0.30205652
0.014257215 -0.01502184 0.30236545
0.024669414 -0.015480022 0.30290556
0.035251342 -0.015182196 0.30381405
0.04457387 -0.015700381 0.30415583
0.055066317 -0.01633 0.30502632
0.064939007 -0.01632113 0.30451882
0.074876055 -0.016527379 0.30460879
0.084795922 -0.016118759 0.30388367
0.090945378 -0.014471954 0.30399999
-0.094803423 -0.0046572648 0.30770874
-0.085074954 -0.0050863381 0.3056888
-0.075010806 -0.0051578158 0.30500427
-0.065021932 -0.0050533521 0.30452323
-0.054978289 -0.0050849444 0.30405942
-0.044920661 -0.0050327033 0.30334073
-0.034922156 -0.0050603081 0.30269417
-0.024981124 -0.0050131953 0.30226552
-0.015063332 -0.0050432603 0.30165884
-0.0048836372 -0.0050128018 0.30106246
0.0048524407 -0.0049106008 0.30067489
0.014479078 -0.00314585 0.30054331
0.024647443 -0.002040172 0.30036184
0.034481391 -0.001214147 0.30001613
0.042133082 -0.00057064148 0.29999998
-0.093617752 0.0022397479 0.30883548
-0.08462619 0.0038275011 0.30826429
-0.074904799 0.0047697308 0.30784786
-0.065040365 0.004926912 0.30744267
-0.054959666 0.0049708597 0.30697796
-0.044894833 0.0048501524 0.30649322
-0.035019219 0.0049200407 0.30615976
-0.024948586 0.0049096728 0.30551675
-0.01492421 0.0049009793 0.30493343
-0.0049394495 0.004894428 0.30452964
0.0050126095 0.0048833508 0.3038626
0.014928531 0.0048736217 0.30332556
0.025082625 0.0048291166 0.30272284
0.03510236 0.0048556356 0.30195773
0.044933796 0.0052547017 0.30131179
0.054772463 0.0062481649 0.30084351
0.06446825 0.0070679174 0.30058041
0.074305534 0.0085075274 0.30016032
0.085445091 0.0088359639 0.29999998
0.091530077 0.0082118502 0.30016008
-0.063389786 0.010500926 0.30900002
-0.054668222 0.011226851 0.30900002
-0.044546533 0.011568435 0.30884215
-0.034799822 0.012311094 0.30858669
-0.024651602 0.012671181 0.30838442
-0.01493466 0.013282886 0.30809385
-0.0047197039 0.014223767 0.30782729
0.0050721834 0.015000124 0.30742437
0.015049212 0.01492392 0.30659011
0.025014786 0.014958702 0.3058264
0.034931157 0.014898187 0.30530578
0.045038819 0.015155525 0.30486777
0.054960527 0.015201571 0.30413225
0.064943783 0.015112106 0.30355722
0.074958168 0.01503175 0.30250439
0.084900983 0.015078943 0.30192634
0.091404833 0.015025518 0.30243286
0.0065396111 0.020964516 0.30900002
0.015570653 0.021693069 0.30886889
0.025326652 0.022858199 0.30841252
0.035104401 0.023238808 0.30825302
0.045177016 0.024175333 0.30809799
0.055172384 0.024950301 0.30773062
0.06503202 0.025033193 0.3071115
0.075003155 0.024955468 0.30626339
0.084998101 0.024914239 0.30555123
0.09117043 0.024982719 0.30606821
0.05886532 0.030581696 0.30900002
0.065748505 0.031293754 0.30900002
0.075321153 0.031948183 0.30861545
0.085117802 0.032583103 0.30835527
0.091238305 0.032650758 0.30850002
-0.10106056 -0.010872046 0.31400004
-0.095529497 -0.014336725 0.31416488
-0.084760562 -0.01610302 0.31459713
-0.10126653 -0.0045689275 0.31054059
-0.099476472 -0.0072459704 0.31011111
-0.1014763 0.0052574547 0.31137043
-0.09572538 0.0065568504 0.31047928
-0.0860347 0.0085538095 0.31001905
-0.078236833 0.0094715301 0.30999997
-0.10130695 0.014955759 0.31389579
-0.095026769 0.014907084 0.31286046
-0.084979385 0.014958108 0.31212917
-0.074973658 0.014832545 0.31167263
-0.065122411 0.01536457 0.3112292
-0.055021934 0.016185023 0.31098834
-0.045170404 0.016441414 0.31074044
-0.035008699 0.017289413 0.31041452
-0.025288669 0.017613782 0.31024194
-0.015521006 0.01823269 0.31006065
-0.0071163252 0.018890917 0.30999997
-0.10131025 0.0246219 0.31726664
-0.094965376 0.025121974 0.31640795
-0.085009463 0.025059741 0.31588203
-0.075058714 0.025043409 0.31545776
-0.065031409 0.024961246 0.31472081
-0.055075176 0.024938939 0.31427711
-0.04503195 0.024942586 0.31380612
-0.0350467 0.024817387 0.31312165
-0.025108038 0.024854707 0.31262991
-0.015105201 0.024814228 0.31227779
-0.0049692467 0.024683492 0.31152612
0.0049437946 0.025521666 0.31098965
0.014760008 0.026356494 0.31067148
0.024539243 0.027786979 0.31043261
0.034946475 0.028321102 0.31032231
0.044332132 0.029184923 0.31000015
0.052231509 0.029839311 0.30999997
0.094093084 0.025758173 0.31209999
-0.1007266 0.030570939 0.31900001
-0.09456607 0.032132261 0.31883132
-0.084548935 0.032862391 0.31850028
-0.074860632 0.033452757 0.3183108
-0.06480778 0.033961639 0.31795076
-0.054995965 0.034517344 0.31781539
-0.044947531 0.034803908 0.31755447
-0.03491351 0.034865085 0.31693867
-0.024826424 0.034792218 0.31628105
-0.01470525 0.03494237 0.31578133
-0.004779174 0.034987058 0.31502664
0.0051836674 0.034900982 0.31424436
0.015039906 0.034869682 0.31340536
0.024986032 0.035092968 0.31299987
0.034968015 0.034972694 0.31254894
0.045024656 0.034984179 0.31175587
0.054978788 0.03512799 0.31109461
0.06472636 0.036209568 0.31077009
0.074847378 0.037103698 0.31079206
0.084895954 0.037647389 0.31045902
0.09113849 0.037585583 0.3104583
-0.041872762 0.040133003 0.31900001
-0.034612823 0.040553879 0.31900015
-0.024419166 0.041501772 0.31874341
-0.014737685 0.042739894 0.31846988
-0.0045996471 0.043945424 0.31811351
0.0054064314 0.044679761 0.31780973
0.015159256 0.044857848 0.31715652
0.025075432 0.044893753 0.31683448
0.035099652 0.044826169 0.31616989
0.045004085 0.045031298 0.31532624
0.05490071 0.045038551 0.31469518
0.065011472 0.045094874 0.31414336
0.075014271 0.045091808 0.31360835
0.084905542 0.045038071 0.31320381
0.091172658 0.044932131 0.31318507
0.016354002 0.050865054 0.31900015
0.024896685 0.051504683 0.31900018
0.035294414 0.05190805 0.31872445
0.044941172 0.052795634 0.31830791
0.055426661 0.05350206 0.3181507
0.064915225 0.053730011 0.31778207
0.075329848 0.054357588 0.31775469
0.084821396 0.054993432 0.31737944
0.090569407 0.054264169 0.31825003
0.085060313 0.060334556 0.31900001
-0.10126083 0.035611685 0.32081816
-0.095219314 0.037067503 0.32064775
-0.08539141 0.037734598 0.32047895
-0.075094528 0.038266554 0.3200427
-0.06572143 0.038832776 0.3199999
-0.055354998 0.03950385 0.32000002
-0.048083484 0.039583318 0.32000002
-0.10128111 0.045158785 0.3236042
-0.095079809 0.045166645 0.32353675
-0.084983893 0.04506097 0.32289132
-0.074969068 0.044963505 0.32201484
-0.065070458 0.044850089 0.32167098
-0.055040874 0.04481985 0.32144675
-0.045094538 0.045046438 0.32144478
-0.03514158 0.045546524 0.32123804
-0.02540653 0.04634095 0.3207666
-0.015303446 0.04775485 0.32038358
-0.0055548646 0.048834458 0.32003912
0.0032964232 0.049504664 0.32000002
-0.10098657 0.053592626 0.32664004
-0.095319338 0.055177465 0.32748729
-0.085028261 0.054951996 0.32698879
-0.074996509 0.055115003 0.32593036
-0.065039366 0.054990195 0.3253901
-0.054961629 0.054919299 0.3248556
-0.044990107 0.054970026 0.32485551
-0.034973655 0.054791428 0.32432902
-0.025001178 0.054752119 0.3235257
-0.015054501 0.054922625 0.32284877
-0.0048846807 0.05514105 0.32204753
0.0049641696 0.055039853 0.321464
0.014469846 0.05559196 0.32075238
0.024846232 0.05644298 0.32038093
0.034708675 0.05681242 0.32050797
0.044986837 0.057509806 0.32047698
0.054070726 0.058002081 0.32024601
0.065610483 0.058652628 0.32002032
0.073137328 0.059172709 0.31999999
0.089717679 0.059848193 0.32000002
0.092167623 0.056624144 0.32078952
-0.10021546 0.060467098 0.32700002
-0.093286499 0.060269833 0.32875001
-0.084050879 0.060910035 0.32900017
-0.074888825 0.061547101 0.32876617
-0.064209558 0.063067511 0.32824254
-0.055054642 0.063881315 0.32816634
-0.044767573 0.064448006 0.32788092
-0.035041798 0.06506671 0.32752511
-0.024983913 0.064981155 0.32708564
-0.014999843 0.064915136 0.3264094
-0.0049399473 0.065040588 0.32566148
0.0050718845 0.064898409 0.32455733
0.014916196 0.065030351 0.3238861
0.02505471 0.064902216 0.32357767
0.035044819 0.064956643 0.3235245
0.045021344 0.064995103 0.32338369
0.055043731 0.064826004 0.32320431
0.064954922 0.064941697 0.32234457
0.074934967 0.065215603 0.32157674
0.084064491 0.063940257 0.32076898
0.090562053 0.061368059 0.32000002
-0.033462465 0.070559852 0.32900003
-0.023928953 0.070843965 0.32900003
-0.014591184 0.071742781 0.32883629
-0.005211385 0.071955688 0.32832101
0.0048853206 0.071652703 0.32735807
0.015042248 0.071780682 0.32664996
0.02502745 0.071739905 0.32646433
0.034170248 0.071228899 0.32594883
0.045733824 0.071205437 0.32597071
0.054905877 0.071524486 0.32540679
0.064669318 0.071465336 0.32425395
0.073184855 0.071079962 0.32326081
-0.10067688 0.063714616 0.33239999
-0.094963513 0.064728141 0.33151248
-0.085283093 0.066017546 0.33104354
-0.075062893 0.066381276 0.33099303
-0.065988891 0.067684658 0.33063745
-0.054934066 0.068716884 0.33007312
-0.047549862 0.06911318 0.32999998
-0.092937097 0.071410015 0.33369994
-0.084550627 0.072670318 0.33315739
-0.075052351 0.072599739 0.3332341
-0.065025359 0.07235425 0.33218613
-0.055207059 0.072692402 0.33194068
-0.045218885 0.072302647 0.33077651
-0.035297722 0.072494365 0.33025369
-0.025332 0.072847269 0.33003566
-0.018238863 0.073328532 0.33000001
