# .PCD v0.7 - Point Cloud Data file format
VERSION 0.7
FIELDS x y z
SIZE 4 4 4
TYPE F F F
COUNT 1 1 1
WIDTH 113
HEIGHT 1
VIEWPOINT 0 0 0 1 0 0 0
POINTS 113
DATA ascii
-0.020474276 -0.021208871 0.046160437
-0.017758733 -0.02125429 0.045660324
-0.023056917 -0.022819845 0.054661237
-0.015885256 -0.022571005 0.054307073
-0.022633908 -0.022914905 0.064241715
-0.017044814 -0.02248802 0.064035587
-0.022599202 -0.023178339 0.07428854
-0.01668161 -0.02279927 0.073880933
-0.022634776 -0.023377554 0.084106743
-0.017400045 -0.022762785 0.082940638
-0.022625033 -0.023311527 0.093380295
-0.017812835 -0.022870434 0.092855588
-0.022320533 -0.023446964 0.1039675
-0.016900942 -0.023044905 0.10279447
-0.022147032 -0.023427485 0.11492078
-0.019658174 -0.022850735 0.11619233
-0.023833029 -0.023923842 0.12163043
-0.026465915 -0.025805313 0.13750002
-0.032449771 -0.031782065 0.177
-0.012587101 -0.024612047 0.20809241
-0.0068779653 -0.026710959 0.20798229
-0.016926078 -0.022785803 0.21000001
-0.015403233 -0.028521121 0.27350003
-0.045239687 -0.020471636 0.31900001
-0.034450687 -0.02046176 0.31884617
-0.024924986 -0.020377515 0.31753331
-0.014702557 -0.020690067 0.31734484
-0.004806261 -0.020678924 0.317
0.0053734919 -0.020667521 0.31632248
0.015160746 -0.020998465 0.31697723
0.024479326 -0.020545488 0.31818753
0.034783743 -0.020407464 0.31800002
0.044802323 -0.020386072 0.31766662
0.054704048 -0.020326173 0.31673333
0.065014593 -0.020623898 0.31649992
0.075113676 -0.02087317 0.31641021
0.08174815 -0.020611059 0.31724998
-0.075180382 -0.016445307 0.31456459
-0.065177433 -0.016554836 0.31428063
-0.054359958 -0.017831 0.31445453
-0.045223538 -0.018351322 0.31403029
-0.034951966 -0.018465988 0.31352562
-0.025217274 -0.018726323 0.31323406
-0.01505491 -0.018710399 0.31204444
-0.0054653785 -0.018808505 0.31171802
0.0050293123 -0.018905595 0.31176466
0.015019213 -0.019025637 0.31183338
0.025804289 -0.018680999 0.31406254
0.034661014 -0.018566884 0.31309259
0.045158867 -0.018778885 0.31317383
0.054654088 -0.018983904 0.31215626
0.064923756 -0.019086573 0.31283331
0.074862696 -0.019038919 0.31222579
0.083881296 -0.019472146 0.31479999
-0.093841672 -0.020681217 0.32763645
-0.08476837 -0.020577829 0.32599995
-0.075214095 -0.020913763 0.32663423
-0.064956218 -0.020932887 0.32614294
-0.055160645 -0.021284111 0.32600006
-0.04439307 -0.022166444 0.32413569
-0.035143141 -0.022474911 0.3244237
-0.024977034 -0.022866957 0.32431951
-0.015110071 -0.023169762 0.32440692
-0.0046329047 -0.023411695 0.32422051
0.005046472 -0.023465123 0.32385081
0.014334819 -0.02383814 0.3247309
0.025461085 -0.022822648 0.32460615
0.03505135 -0.022845527 0.3241508
0.045085892 -0.022892786 0.32454801
0.055037271 -0.022848073 0.32419193
0.064830065 -0.02320282 0.32461664
0.074878335 -0.023610778 0.32472882
0.083334759 -0.023106379 0.32493028
0.090504758 -0.021113381 0.32900003
-0.094289236 -0.018465275 0.32197374
-0.085469551 -0.018789472 0.32170597
-0.075064577 -0.018979672 0.32203448
-0.065059729 -0.018909777 0.32124138
-0.057280667 -0.019165233 0.32080001
-0.09357398 -0.023272375 0.33487821
-0.08511053 -0.02361032 0.33504477
-0.074823663 -0.023928542 0.33546549
-0.065029494 -0.023930341 0.33458182
-0.055281438 -0.024161903 0.33395541
-0.044438954 -0.025615919 0.33487812
-0.034752842 -0.0261179 0.33429989
-0.024973789 -0.026809592 0.33509102
-0.01503788 -0.026759645 0.33431569
-0.004896407 -0.027065743 0.33426782
0.0051148199 -0.027392788 0.33459327
0.014738698 -0.027033923 0.3341459
0.024536738 -0.02618208 0.33379161
0.034890749 -0.026355529 0.33397672
0.045167375 -0.026742669 0.33474541
0.054967653 -0.026679642 0.33355165
0.06495329 -0.026673937 0.3333213
0.07483568 -0.026854919 0.33411765
0.08557035 -0.026253164 0.33451924
0.092299893 -0.023970922 0.33732256
-0.040551834 -0.030151131 0.34500003
-0.10003991 -0.026005704 0.34800002
-0.094321936 -0.026329257 0.3434118
-0.084568627 -0.027020529 0.34325585
-0.074999534 -0.027270697 0.34426188
-0.064700104 -0.027338555 0.34370837
-0.05499265 -0.027549271 0.34425011
-0.04594427 -0.028059963 0.34373337
-0.035578061 -0.028813267 0.34156007
-0.025028393 -0.029154822 0.34185717
-0.015068652 -0.029184416 0.34070593
-0.0048702671 -0.029463803 0.34100002
0.0052594305 -0.02974537 0.34035715
0.016207788 -0.02909996 0.34170595
