# .PCD v0.7 - Point Cloud Data file format
VERSION 0.7
FIELDS x y z
SIZE 4 4 4
TYPE F F F
COUNT 1 1 1
WIDTH 587
HEIGHT 1
VIEWPOINT 0 0 0 1 0 0 0
POINTS 587
DATA ascii
-0.0055269762 -0.15512146 0.31261113
0.13906381 -0.11039351 0.317
0.14040214 -0.11034571 0.317
0.13899291 -0.10705777 0.31771427
0.14195338 -0.10368643 0.31762505
0.13994119 -0.098584287 0.31900001
0.14396663 -0.09749721 0.3186838
-0.13435669 -0.12020899 0.3277778
-0.14230195 -0.11789381 0.32854548
-0.13610017 -0.11858573 0.32800022
0.099083759 -0.10083909 0.32190004
0.10406896 -0.10190896 0.32317781
0.13898316 -0.10178667 0.32225001
0.14096513 -0.10333956 0.32343474
0.088674307 -0.091648474 0.3257826
0.095617823 -0.093765266 0.32377255
0.10480686 -0.09480799 0.32276988
0.1149281 -0.093569353 0.32326367
0.12477691 -0.093217991 0.32269967
0.1357664 -0.093430445 0.32198113
0.1439331 -0.09301018 0.32080838
0.15068832 -0.091269836 0.32200003
0.078742869 -0.084019914 0.32824141
0.085345171 -0.084725142 0.32751164
0.094849445 -0.084735543 0.32642621
0.10510299 -0.085291848 0.32587329
0.11517984 -0.085147485 0.32576483
0.12511598 -0.085044287 0.325214
0.1350579 -0.084907211 0.32460743
0.14490616 -0.085137792 0.32369938
0.15317553 -0.083845749 0.32379672
0.088421278 -0.07945089 0.32900003
0.095974915 -0.078823239 0.32876015
0.10556716 -0.077656314 0.32849979
0.11517798 -0.077498242 0.32867211
0.12498687 -0.076930694 0.32807553
0.13532649 -0.075587302 0.32749197
0.14518525 -0.075014457 0.32723761
0.15473302 -0.075041108 0.3261613
0.16115475 -0.074429706 0.32643592
0.13911936 -0.069727972 0.32900003
0.14587824 -0.068649009 0.32900026
0.15515985 -0.067636907 0.32843924
0.16071993 -0.068144709 0.32808337
-0.15290447 -0.11183091 0.33322921
-0.14448936 -0.11342492 0.33131918
-0.13497615 -0.1136094 0.33083481
-0.12753318 -0.11237858 0.33146426
-0.1709985 -0.10241383 0.33891669
-0.16429515 -0.10358241 0.33712444
-0.1549893 -0.10491221 0.33526522
-0.14494069 -0.10509579 0.33432397
-0.13494731 -0.1049438 0.33389229
-0.12520035 -0.10485035 0.33365411
-0.11664254 -0.10298869 0.33455023
-0.16421172 -0.097201526 0.33868143
-0.15473652 -0.096904255 0.33804694
-0.14495155 -0.09540695 0.33768284
-0.13513705 -0.095118761 0.33760574
-0.12505324 -0.095014051 0.33730996
-0.11512375 -0.095248967 0.33734521
-0.10635079 -0.093492791 0.33809936
-0.099599481 -0.091526449 0.33900002
-0.13366221 -0.089594319 0.33900008
-0.12588598 -0.089642018 0.33900008
-0.11087023 -0.089558542 0.33900002
-0.10673565 -0.088723674 0.33899999
0.076044649 -0.081450842 0.33073333
0.08207228 -0.080388986 0.33000001
0.058874421 -0.070600875 0.33722225
0.065964587 -0.073366195 0.33523685
0.075077683 -0.07501711 0.33269021
0.084804639 -0.074920528 0.33135542
0.094770238 -0.074070923 0.33108589
0.10453606 -0.072789513 0.33072469
0.11490662 -0.072289273 0.33027104
0.12486076 -0.071886763 0.33035859
0.13279416 -0.071352124 0.3302564
0.048866142 -0.061699916 0.33768415
0.055546321 -0.064110786 0.33712015
0.065153286 -0.065006323 0.33759534
0.075000629 -0.065057315 0.33681867
0.085039854 -0.065086745 0.33586326
0.094982058 -0.065011531 0.33487523
0.10508645 -0.065110035 0.33369535
0.11497112 -0.064893648 0.33296704
0.12497388 -0.06481602 0.33239323
0.13510042 -0.064975157 0.33169529
0.14482509 -0.063766934 0.33146241
0.15470251 -0.062730558 0.33091542
0.16435026 -0.062975712 0.33111542
0.04960385 -0.059682105 0.33900002
0.055800978 -0.059367251 0.33900011
0.061530575 -0.059443574 0.33900002
0.07726758 -0.059117161 0.33900011
0.084985666 -0.058375668 0.3389698
0.095608197 -0.056929901 0.33824629
0.1050644 -0.055678353 0.33736905
0.11489013 -0.054896958 0.33637214
0.12494542 -0.054892 0.33569041
0.13503653 -0.054842096 0.33516234
0.14491229 -0.054892857 0.3340793
0.1548011 -0.055218682 0.33340755
0.16531672 -0.055832185 0.33387166
0.17034392 -0.057454709 0.33233333
0.11632969 -0.048081607 0.33860672
0.12529936 -0.046292417 0.33818334
0.13499427 -0.045361407 0.33783311
0.14478117 -0.045229215 0.33748373
0.15501332 -0.045068108 0.33742723
0.16377446 -0.043433007 0.33767027
0.14590362 -0.039082944 0.33900005
0.15604046 -0.038778942 0.33899999
0.16178975 -0.039056465 0.33893758
-0.17369039 -0.10128226 0.34062505
-0.19100924 -0.09072116 0.34733334
-0.18363485 -0.093147919 0.34416261
-0.17507912 -0.094671629 0.34184316
-0.16553997 -0.092804365 0.34059986
-0.1556654 -0.09208177 0.34038827
-0.1453301 -0.090388618 0.34000003
-0.13936757 -0.090002157 0.34
-0.120707 -0.090002157 0.34
-0.11624692 -0.090155959 0.33999997
-0.10114928 -0.090181582 0.34
-0.098816708 -0.090361014 0.33999997
-0.19168068 -0.084868029 0.34876004
-0.18487179 -0.08492396 0.34678829
-0.17493618 -0.085005917 0.3445971
-0.16489966 -0.084962592 0.34316915
-0.15548129 -0.085155755 0.34363276
-0.14490227 -0.084767491 0.34181097
-0.13507231 -0.084709816 0.34156483
-0.12499373 -0.08489532 0.34135967
-0.11542715 -0.085082352 0.34201005
-0.10473864 -0.084484272 0.34140077
-0.095848359 -0.084071547 0.34158859
-0.088924348 -0.081315562 0.34300002
-0.19109038 -0.079565771 0.34900001
-0.1838005 -0.076733008 0.34852231
-0.17454234 -0.075797968 0.34764063
-0.16488717 -0.074902624 0.34690362
-0.15499407 -0.07491979 0.34635201
-0.1449727 -0.074816525 0.34581935
-0.13492903 -0.075056463 0.34528038
-0.12509254 -0.075327046 0.34495518
-0.11504575 -0.075182602 0.34446698
-0.10496488 -0.075161688 0.34405988
-0.094988681 -0.075075068 0.34408638
-0.085520238 -0.074573062 0.34517086
-0.078281567 -0.071709283 0.34664005
-0.17068343 -0.069546476 0.34900001
-0.16371532 -0.069086023 0.34900001
-0.15429664 -0.066997975 0.34877804
-0.14543536 -0.067290671 0.34844759
-0.13441877 -0.06670408 0.34842402
-0.12489599 -0.065817624 0.34817028
-0.11507068 -0.065576658 0.34784839
-0.10477754 -0.06537395 0.34757614
-0.094948009 -0.065193348 0.34762761
-0.085010111 -0.065288521 0.34767708
-0.075605482 -0.064912364 0.3482829
-0.068388164 -0.06214286 0.3488
0.046550419 -0.060779594 0.34146154
-0.084856413 -0.059969213 0.34900001
-0.074787989 -0.059723627 0.34900001
-0.06901709 -0.059969213 0.34900001
0.028951798 -0.050718039 0.34619999
0.036215093 -0.052721538 0.34464765
0.045358647 -0.05475276 0.34295192
0.054982316 -0.054592494 0.34209219
0.065134652 -0.054966174 0.341809
0.074695393 -0.054610506 0.34148407
0.08482036 -0.053290229 0.34089771
0.093916841 -0.052452262 0.34051684
0.10418726 -0.050839916 0.34000006
0.1678142 -0.050527871 0.34
0.018590333 -0.040691901 0.34900001
0.02619642 -0.043870568 0.347269
0.035049226 -0.045310646 0.34643874
0.044967156 -0.045193266 0.34602603
0.055034272 -0.04509886 0.3456845
0.065077722 -0.04517398 0.34542835
0.075142704 -0.045134917 0.34525311
0.085032426 -0.044943329 0.3441121
0.095103286 -0.045064744 0.34281051
0.10501059 -0.044990785 0.34179619
0.11416387 -0.043882336 0.34098643
0.12389164 -0.041902818 0.34046024
0.1340394 -0.040648755 0.34
0.1678142 -0.048733585 0.34
-0.035165623 -0.030218363 0.34576926
-0.024900811 -0.030629098 0.34676015
-0.01426622 -0.032164194 0.34674996
-0.0057494109 -0.030791944 0.34615794
0.0049655968 -0.030886285 0.34507692
0.015989639 -0.036730256 0.34772223
0.025761005 -0.036652263 0.34900001
0.035282612 -0.037602633 0.34865299
0.045933131 -0.037053887 0.34855351
0.054906718 -0.035704616 0.3487305
0.065192148 -0.035360672 0.34845725
0.07489986 -0.035169467 0.34773099
0.085102201 -0.035162061 0.34760484
0.095096521 -0.035081077 0.34615219
0.10495724 -0.034902133 0.34504047
0.11503073 -0.035036743 0.34409842
0.12510139 -0.035060812 0.34340966
0.13494907 -0.034982219 0.34173834
0.14476053 -0.034557886 0.34114167
0.15469639 -0.034273706 0.34096852
0.16588883 -0.03419495 0.34316674
0.17032759 -0.033657346 0.34276468
0.024999568 -0.028877828 0.34266675
0.034902357 -0.028826198 0.34221435
0.044341058 -0.02907547 0.34241179
0.055090036 -0.029167008 0.34199998
0.065515541 -0.029313209 0.3437143
0.075090386 -0.02908173 0.34100005
0.084910825 -0.029059159 0.34138462
0.096388392 -0.027110001 0.34601367
0.10483172 -0.025693981 0.34821007
0.1152529 -0.02516217 0.34761581
0.12504704 -0.024806686 0.34628165
0.13501602 -0.024752518 0.34561694
0.14494511 -0.02500353 0.34485698
0.15465827 -0.025626261 0.34430793
0.16126166 -0.025098059 0.34467867
0.11815397 -0.018897485 0.34900001
0.12517147 -0.018721964 0.34882501
0.13550609 -0.017811557 0.34836993
0.1457212 -0.01700739 0.34781829
0.15382417 -0.014845718 0.34800008
-0.19391774 -0.085788779 0.35000005
-0.20162447 -0.077268273 0.35623527
-0.19446443 -0.074529894 0.35338005
-0.18597633 -0.072871223 0.35066277
-0.17751162 -0.071371175 0.34999999
-0.19376479 -0.065936513 0.35544443
-0.18493402 -0.064941369 0.35335112
-0.17498069 -0.065078266 0.35153621
-0.16510431 -0.064527117 0.35089836
-0.15561649 -0.062516108 0.35047737
-0.14460169 -0.062502868 0.35043773
-0.1356561 -0.061807595 0.35012141
-0.12547269 -0.060689215 0.35000008
-0.11405575 -0.060595695 0.35000002
-0.10586438 -0.060374368 0.34999996
-0.095073663 -0.060141038 0.34999996
-0.085099556 -0.060141049 0.35000005
-0.066628955 -0.060141046 0.35000002
-0.19231261 -0.055440571 0.35757697
-0.18476084 -0.055205435 0.35627627
-0.17491888 -0.054920118 0.35489655
-0.16501559 -0.055116203 0.35421178
-0.15500164 -0.055203762 0.35353318
-0.14505814 -0.055076357 0.35310361
-0.13499986 -0.054973155 0.35249218
-0.12499141 -0.054885618 0.35208079
-0.11505552 -0.054982908 0.35210064
-0.1050147 -0.054872576 0.35164735
-0.095012672 -0.054778203 0.35134241
-0.08495874 -0.054741245 0.35094628
-0.07507436 -0.054626554 0.35081691
-0.065199755 -0.054585695 0.35117155
-0.057447862 -0.052128829 0.35252181
-0.19376181 -0.04956238 0.35900003
-0.18456957 -0.047042787 0.35886222
-0.17470598 -0.045805771 0.35844463
-0.16495153 -0.045088187 0.35761154
-0.15489839 -0.04511185 0.35668859
-0.14496727 -0.045058675 0.35641751
-0.13501999 -0.045000326 0.35627428
-0.12497086 -0.045021836 0.35593453
-0.11511335 -0.044957895 0.35575116
-0.10505731 -0.044885051 0.35512292
-0.094968952 -0.044897605 0.35481259
-0.08493641 -0.044876847 0.35459679
-0.074980475 -0.044781487 0.3544378
-0.065087363 -0.044795122 0.35392866
-0.055118229 -0.044600487 0.35365102
-0.047131673 -0.042502213 0.35435927
-0.16231219 -0.039710697 0.359
-0.15257418 -0.039142333 0.35900009
-0.14474958 -0.038199876 0.35882241
-0.13473642 -0.037836067 0.35868818
-0.12485341 -0.037366193 0.35849434
-0.11476865 -0.037641756 0.35884124
-0.10450073 -0.035936262 0.35833836
-0.095015541 -0.035077721 0.35769102
-0.084891468 -0.035059035 0.357243
-0.074767783 -0.034936748 0.35695833
-0.064847477 -0.034925394 0.35628524
-0.054971248 -0.034818865 0.35546711
-0.045268953 -0.034935679 0.35480225
-0.035505213 -0.034551803 0.35420346
-0.025430968 -0.033586182 0.35240692
-0.013912172 -0.034090497 0.35085708
-0.0052853408 -0.034429483 0.35181049
0.0050348341 -0.034391217 0.35118878
0.015343263 -0.034618963 0.35069937
0.024909524 -0.034839515 0.35053688
0.03488588 -0.034614876 0.35050684
0.044202801 -0.033395641 0.35000026
0.055659093 -0.032728147 0.35000005
0.061023347 -0.03214784 0.35000002
-0.10201348 -0.028274873 0.35730773
-0.095533088 -0.029141476 0.35484999
-0.085142843 -0.029379163 0.35323077
-0.074983709 -0.029170943 0.35072729
-0.067835547 -0.029152041 0.35050002
0.10823717 -0.021252062 0.34999993
0.11204321 -0.020737125 0.34999999
0.10828456 -0.018640406 0.35072219
0.11579248 -0.015091798 0.35168073
0.12528948 -0.013773241 0.35139289
0.13467202 -0.013192354 0.35071549
0.14440688 -0.012731882 0.3503955
0.15590473 -0.010886141 0.34999996
0.1645373 -0.011479791 0.35336369
0.17084277 -0.010559984 0.35662502
0.11913163 -0.0092111109 0.35511115
0.12512356 -0.0051013199 0.35551083
0.13504687 -0.0051792511 0.35401517
0.14430827 -0.0060557239 0.35287768
0.15451491 -0.0071925712 0.3523618
0.16743955 -0.0084898565 0.35444999
0.17091607 -0.008052012 0.35361543
0.12644672 0.0033570861 0.35817382
0.13393337 0.0033857345 0.35796577
0.14324327 0.0058640172 0.35876754
-0.20208068 -0.068889588 0.36100003
-0.20143047 -0.053472668 0.36500001
-0.19747947 -0.053966325 0.36196154
-0.20157325 -0.045026403 0.3664763
-0.19508927 -0.043243386 0.36242315
-0.18489076 -0.042548373 0.36022991
-0.17679594 -0.041395452 0.35999998
-0.20335467 -0.037988428 0.36753839
-0.19416137 -0.038034439 0.36275685
-0.18305694 -0.035660125 0.3623668
-0.17505495 -0.03509669 0.36199975
-0.16490772 -0.034869496 0.36134103
-0.15536366 -0.034434509 0.36130327
-0.14513506 -0.033102404 0.36079669
-0.13516657 -0.032774355 0.36061123
-0.12495798 -0.032275241 0.36042869
-0.11528289 -0.032622006 0.3603237
-0.10699908 -0.0316488 0.36003026
-0.18203875 -0.024749065 0.36594456
-0.1748163 -0.024936728 0.36569914
-0.16493294 -0.024952393 0.36459404
-0.15501544 -0.024886791 0.36404169
-0.14517516 -0.02497315 0.36409557
-0.13504644 -0.024840755 0.36343691
-0.12496038 -0.024825798 0.36328298
-0.11531942 -0.025310015 0.36247128
-0.10706021 -0.027962865 0.36062744
-0.19599681 -0.010739962 0.36600006
-0.1858018 -0.018955261 0.36800003
-0.17484163 -0.016854322 0.36797848
-0.16500485 -0.016445579 0.36796695
-0.15451166 -0.015614536 0.36758626
-0.14516182 -0.015157831 0.36761057
-0.13509883 -0.015059733 0.36692834
-0.1257537 -0.015512249 0.36671147
-0.11847606 -0.018864064 0.36500001
-0.196381 -0.0095810639 0.36600003
-0.13217099 -0.0096595967 0.36899999
-0.12710793 -0.0096595967 0.36899999
0.1252072 0.0072310353 0.36148286
0.13579707 0.0079995338 0.36020643
0.14515099 0.0087668961 0.35999995
0.15114225 0.0078916149 0.36000007
0.12636589 0.015133014 0.36378491
0.13490151 0.014912101 0.36203405
0.14557461 0.013966359 0.36105561
0.15139811 0.013626114 0.36150002
0.16947378 0.016408877 0.36714289
0.17111813 0.017248197 0.36522725
0.12707265 0.024762891 0.36661538
0.13555491 0.023396468 0.36517814
0.14316687 0.022528348 0.36403999
0.15051569 0.020550271 0.36600003
0.1276422 0.032626916 0.36873186
0.13284038 0.032169998 0.36821219
-0.18784204 -0.020978209 0.37080002
-0.20448983 -0.011704705 0.37735295
-0.1932223 -0.017307341 0.37133336
-0.18382418 -0.016971422 0.37180647
-0.17593952 -0.012106816 0.37154165
-0.1648781 -0.011515949 0.3704651
-0.15779589 -0.011214367 0.37033328
-0.1442448 -0.010466817 0.37
-0.20400743 -0.0096037472 0.377
-0.18228772 -0.0066539454 0.37520689
-0.17380393 -0.0053973459 0.37354374
-0.1650627 -0.004989224 0.37307447
-0.15491554 -0.0050399322 0.37216768
-0.14509553 -0.0049968497 0.37188172
-0.13513191 -0.004840422 0.37141597
-0.12767528 -0.0050666551 0.3712754
-0.17143551 0.0031864613 0.37682611
-0.16444106 0.0049950085 0.37653404
-0.15484485 0.0049019456 0.37600651
-0.14501692 0.0048059989 0.37569442
-0.13497648 0.0048168181 0.37480009
-0.12834387 0.0047811982 0.37501895
-0.1706713 0.01033745 0.37866667
-0.16626939 0.011056883 0.37800017
-0.15414757 0.011544228 0.37832728
-0.14466386 0.013005838 0.37856111
-0.13490812 0.014185171 0.37817132
-0.12875013 0.014324318 0.37827772
0.12536453 0.024970768 0.37118185
0.12588626 0.034982212 0.37099999
0.13029151 0.037176747 0.37
0.16886145 0.042428717 0.37500003
0.17103831 0.04275855 0.37500003
-0.17239019 0.006751779 0.38000008
-0.20432565 0.01486096 0.38736367
-0.17066622 0.018846288 0.3865
-0.16373606 0.016684145 0.38194808
-0.15515094 0.01686703 0.380927
-0.14558789 0.018133171 0.3801052
-0.13549119 0.019367434 0.38000008
-0.12837602 0.01915908 0.38000005
-0.17047855 0.020503994 0.38700002
-0.16436024 0.020922989 0.38400003
-0.15362698 0.023937715 0.38241866
-0.14479274 0.024997694 0.38204858
-0.13489228 0.025024643 0.3815518
-0.1285456 0.02508603 0.38126826
-0.15117767 0.033810407 0.38794738
-0.14467919 0.034562834 0.38603505
-0.13492288 0.034926184 0.38503399
-0.12837778 0.035092726 0.3848913
-0.1422095 0.042842075 0.38784859
-0.13359745 0.04206359 0.38674358
-0.12751262 0.044515681 0.38734883
0.12827575 0.044608455 0.38140419
0.13185699 0.045120183 0.3808234
-0.1253752 0.050992496 0.38900003
0.12776873 0.069086969 0.38869998
0.13106987 0.069139913 0.38900003
0.12719402 0.071340583 0.38899997
0.13115944 0.071409255 0.38899997
-0.20843518 0.014900116 0.39000002
-0.15630302 0.037381928 0.39063159
-0.16154073 0.044357598 0.39254558
-0.15731913 0.040840462 0.39094448
-0.1351172 0.048502848 0.3915
-0.12832057 0.048630036 0.39028573
-0.14082304 0.050972011 0.39200005
-0.13758206 0.051144406 0.39200008
-0.12681249 0.056459062 0.39385003
0.12869005 0.073351614 0.39000002
0.1307482 0.073763244 0.39000002
0.053432237 0.08964169 0.39540002
-0.0032505896 0.094263926 0.39887109
0.005691472 0.094724074 0.39845771
0.015194737 0.094881356 0.39856905
0.024899356 0.096107654 0.39825207
0.033960965 0.094767317 0.3975808
0.045579147 0.092868879 0.39739284
0.05201621 0.093330219 0.39670005
0.029044604 0.101014 0.39900002
0.031664964 0.10110757 0.39899999
-0.07724224 0.098511457 0.40525928
-0.062707521 0.097040176 0.40826315
-0.052865487 0.096306711 0.4031153
-0.045009784 0.096439317 0.40325266
-0.034876399 0.096682556 0.40193528
-0.024788961 0.096569121 0.40122646
-0.015143034 0.096301131 0.4011929
-0.0053574909 0.097683653 0.40065008
0.0047295601 0.098338515 0.39999986
0.014664526 0.098599657 0.40036657
0.020110784 0.099296965 0.40000001
0.03810434 0.098164268 0.40162501
0.044279147 0.096830949 0.4012
0.058118459 0.096418552 0.40507695
0.061543535 0.094706193 0.40454999
0.083657913 0.098978534 0.40303704
0.12862624 0.098153055 0.40225005
0.13032484 0.096025862 0.40400001
-0.076860614 0.10117036 0.40525004
-0.066143557 0.10317566 0.40899998
-0.044345584 0.10052616 0.40394109
-0.033940297 0.10064934 0.40300006
-0.027140891 0.10063763 0.4029091
-0.014248118 0.10234537 0.40361524
-0.0042626797 0.10177228 0.40140015
0.0046872147 0.10169922 0.4009535
0.015035632 0.10460308 0.40220022
0.021358607 0.10670177 0.4029583
0.035247952 0.10236356 0.4016389
0.045480654 0.10268113 0.40344116
0.05589503 0.10188612 0.40677783
0.079131596 0.10290283 0.40533337
0.082868822 0.10163076 0.40255889
0.12734576 0.10014133 0.40000001
0.017299859 0.11034131 0.4033334
0.021435525 0.11136737 0.40512502
-0.11598761 0.099262513 0.41699997
-0.070261754 0.099182948 0.41000003
-0.066858225 0.09764269 0.41068754
-0.11578614 0.10192472 0.41688883
-0.071078807 0.10392223 0.41051996
-0.06629023 0.10275596 0.41014883
0.019796239 0.11330631 0.41100001
0.02066383 0.1141739 0.41100001
0.082094997 0.12745222 0.41900003
0.082734212 0.12908629 0.42000002
0.082290918 0.13085946 0.42000002
-0.15474857 0.15136537 0.42700005
-0.1574631 0.14730671 0.43273345
-0.16040039 0.15293548 0.4375
-0.15880686 0.15167171 0.43509093
-0.20062719 0.169466 0.43100002
-0.19886102 0.16877244 0.43155557
-0.15391403 0.16936521 0.43700001
-0.15385252 0.17102566 0.43699992
-0.15899548 0.15380938 0.44000003
-0.15107639 0.18684088 0.44600004
-0.14516838 0.18776929 0.44576767
-0.13519546 0.18725514 0.44503623
-0.12545542 0.18758325 0.44409537
-0.11471643 0.18872908 0.44407707
-0.10497867 0.18818101 0.44329551
-0.095766068 0.18837233 0.4429999
-0.085148565 0.1891861 0.44236365
-0.078662455 0.18931569 0.44266668
-0.15057939 0.19154637 0.44700003
-0.14453584 0.19494964 0.4474456
-0.13492379 0.19470644 0.44663736
-0.12493065 0.19481482 0.44583496
-0.11490507 0.19495299 0.44511625
-0.10479134 0.19499612 0.44405904
-0.094963081 0.19505596 0.44378319
-0.084963493 0.19473372 0.44364792
-0.077903755 0.19493236 0.44581404
-0.061385192 0.19836834 0.44507697
-0.055023432 0.19793171 0.44417495
-0.045158077 0.19775963 0.4433257
-0.034761712 0.19829148 0.44288638
-0.024897177 0.19790566 0.44202513
-0.016603034 0.19852257 0.44236004
-0.14567168 0.20297359 0.44863641
-0.13222601 0.20148736 0.44843748
-0.12486968 0.2031348 0.44790179
-0.11452787 0.2039599 0.44716206
-0.10515069 0.20504668 0.44730112
-0.094994701 0.20504969 0.44645822
-0.085053638 0.20510817 0.44725272
-0.079054281 0.20463932 0.44859999
-0.0609322 0.20428577 0.4460589
-0.055036586 0.20495178 0.44615924
-0.044988684 0.20397057 0.44547346
-0.034895934 0.20378943 0.44408482
-0.02471111 0.20425092 0.44334161
-0.016543821 0.2045384 0.44325036
-0.10237796 0.21066444 0.449
-0.094775513 0.21152779 0.4481515
-0.084964924 0.21119057 0.44832003
-0.079314709 0.21098036 0.44900003
-0.060697019 0.21098334 0.44800001
-0.054870572 0.21192919 0.4483636
-0.044262249 0.2113072 0.44900012
-0.035421535 0.21164553 0.44817147
-0.025638554 0.21105944 0.44676006
-0.016653325 0.21107168 0.44618756
-0.14932464 0.19922645 0.45100006
-0.075663544 0.19737852 0.45040002
-0.14333297 0.20516863 0.45132154
-0.135717 0.20577516 0.45148534
-0.12503432 0.2082762 0.45017847
-0.11675449 0.20883687 0.4501
-0.076880202 0.20564735 0.45231584
-0.14231712 0.21187235 0.45386374
-0.13573715 0.21154942 0.45354554
-0.12403253 0.21138622 0.45103043
-0.11562279 0.21137564 0.45074078
-0.10672227 0.21129191 0.44999996
-0.076864496 0.21202634 0.4515385
-0.050518911 0.21430001 0.45000002
-0.046861734 0.21339758 0.4499999
