# .PCD v0.7 - Point Cloud Data file format
VERSION 0.7
FIELDS x y z rgba
SIZE 4 4 4 4
TYPE F F F U
COUNT 1 1 1 1
WIDTH 1095
HEIGHT 1
VIEWPOINT 0 0 0 1 0 0 0
POINTS 1095
DATA ascii
-0.012268203 -0.037162583 0.36910635 7818006
-0.0050324919 -0.03476147 0.36803958 6509363
0.0025550127 -0.03529036 0.36890113 10771716
-0.0044195061 -0.027765784 0.36949238 6114867
0.0010077761 -0.028517211 0.36968273 10836992
-0.0039133895 0.018740136 0.36964044 13255026
0.00095514412 0.019187978 0.36983553 13386358
-0.003657389 0.024291545 0.3694182 11151190
0.0015897158 0.024305534 0.36969632 11216984
0.0780707 -0.20516142 0.37965682 6331846
0.084680639 -0.20438306 0.37950012 6331846
0.095588848 -0.2044791 0.37966177 6331846
0.10516862 -0.20419957 0.37952802 6331846
0.11380663 -0.20495164 0.37922773 6331846
0.12496053 -0.20550875 0.37934452 6331846
0.13402343 -0.20380604 0.37942612 6331846
0.14376804 -0.20091732 0.37982613 6331846
0.099329457 -0.19962837 0.3799594 6331846
0.10349574 -0.19956391 0.37995937 6331846
0.1369884 -0.19812575 0.37976405 6331846
0.14171392 -0.1979422 0.3798458 6331846
0.15560466 -0.19767712 0.37991396 6331846
-0.012818236 -0.050853003 0.37355384 10116111
0.0098239062 -0.051403474 0.3702521 8226673
0.011545593 -0.053563289 0.37142465 6646106
-0.013188298 -0.049646668 0.37096035 10772231
0.0088326884 -0.043770306 0.37089282 9474686
0.011647619 -0.04468628 0.37230903 7765872
-0.014015719 -0.033430487 0.37169403 9526560
0.0075267958 -0.034565039 0.37158528 10325615
0.011894279 -0.035289522 0.37514624 9476231
-0.013308946 -0.025037188 0.37376007 9783096
-0.0054533454 -0.023169724 0.37184441 8531262
0.0053846291 -0.024734896 0.37362251 10048323
0.011513681 -0.026580913 0.37616241 9928828
-0.012777019 -0.014623948 0.37503406 11350874
-0.0051674643 -0.014908347 0.3739669 11217753
0.0046552098 -0.014911618 0.37690431 10956119
0.010429847 -0.017328719 0.37935236 11025500
-0.012681263 -0.0049879947 0.37810495 11154523
-0.005048621 -0.0051550637 0.37676451 11217497
0.0032130643 -0.0054614618 0.37830204 11086424
-0.011694042 0.0045107049 0.37952083 12202852
-0.004807035 0.0051155691 0.37916863 12201569
0.0017822618 0.0048386655 0.37932569 12004960
-0.023620995 0.016966578 0.3768191 12863093
-0.014584065 0.015758684 0.37552056 13911679
-0.0055181608 0.014161555 0.37431356 14305154
0.0049437536 0.016002931 0.37278479 13714814
0.014813656 0.016149338 0.3767271 12730740
-0.023421261 0.024152888 0.37599996 10037839
-0.015084583 0.024918687 0.37325215 10429777
-0.0081034843 0.026369939 0.37075785 10232397
0.0064945486 0.025287604 0.37094933 10561363
0.014857806 0.024731761 0.37559167 10037840
0.02052002 0.022436418 0.3799594 10366294
-0.020959008 0.031407319 0.37794179 3609115
-0.014549755 0.031722151 0.37411749 4920355
-0.0050421837 0.032123018 0.37134501 5575718
0.0045542642 0.031821851 0.37109494 6428460
0.013504664 0.031020815 0.37567237 6363178
-0.17277545 -0.21034083 0.38958338 6331846
-0.16384125 -0.21262088 0.38748789 6331846
-0.15500554 -0.21205564 0.38577935 6331846
-0.14516169 -0.2115428 0.38489649 6331846
-0.1352915 -0.21117067 0.38492987 6331846
-0.12510139 -0.21096256 0.38498732 6331846
-0.11576863 -0.21067196 0.38498223 6331846
-0.1051582 -0.21031466 0.38489634 6331846
-0.17331235 -0.20483764 0.38951972 6331846
-0.16467623 -0.20476602 0.38856488 6331846
-0.15482624 -0.20504597 0.38726079 6331846
-0.14511172 -0.20516619 0.386742 6331846
-0.1350397 -0.2049661 0.38639998 6331846
-0.12517586 -0.20503536 0.38631955 6331846
-0.11504713 -0.20499247 0.38622963 6331846
-0.10488863 -0.20493379 0.38587788 6331846
-0.095041461 -0.20503919 0.38558477 6331846
-0.085143082 -0.20479159 0.38566795 6331846
-0.075043038 -0.20466077 0.38549769 6266053
-0.06512998 -0.2043478 0.38534531 6331846
-0.054943044 -0.204254 0.38573816 6331846
-0.044957161 -0.20427072 0.3854512 6331846
-0.035151087 -0.20407322 0.38506147 6331846
-0.025097396 -0.20398912 0.3852787 6331846
-0.014923668 -0.20389234 0.38522124 6331846
-0.0047920672 -0.20404983 0.38475707 6266309
0.0049797264 -0.20398456 0.38449934 6331846
0.014699256 -0.2038441 0.38409099 6331846
0.024811091 -0.20355971 0.3833133 6331846
0.034755394 -0.20352839 0.38244301 6331846
0.045013212 -0.20364571 0.38184202 6331846
0.055108983 -0.20362055 0.38135359 6331846
0.064952835 -0.20347363 0.38119632 6331846
0.073940903 -0.2032169 0.38098165 6331846
0.085373737 -0.20078188 0.38029587 6331846
0.092726998 -0.20109273 0.38023719 6331846
0.11692034 -0.20240436 0.3804594 6331846
0.12367096 -0.2019867 0.38097718 6331846
0.1309524 -0.20134695 0.38080654 6331846
0.14474478 -0.20384255 0.3814384 6331846
-0.17115518 -0.19880369 0.38977984 6331846
-0.16446601 -0.19651365 0.38956383 6331846
-0.15457724 -0.19585589 0.38899696 6331846
-0.14543331 -0.19573489 0.38892326 6331846
-0.13517934 -0.19627616 0.38884965 6331846
-0.12489508 -0.19624716 0.38879821 6331846
-0.11469449 -0.19525297 0.38863581 6331846
-0.10489827 -0.19494952 0.38838413 6331846
-0.095016979 -0.19496705 0.38804799 6331846
-0.08497104 -0.19498879 0.38812938 6331846
-0.074919537 -0.19502471 0.38828078 6331846
-0.064967312 -0.19515935 0.38833836 6331846
-0.055105075 -0.19497624 0.38844877 6331846
-0.044794384 -0.19504347 0.38806421 6331846
-0.035055775 -0.19499169 0.38801828 6331846
-0.025184579 -0.1951544 0.38786736 6331846
-0.014988396 -0.19508888 0.38786221 6331846
-0.0047565158 -0.19513804 0.38714826 6331846
0.0049609551 -0.19505355 0.38685197 6331846
0.014695463 -0.1948958 0.38639697 6331846
0.024801113 -0.19504823 0.38571486 6331846
0.035052087 -0.19516785 0.38490999 6331846
0.045047924 -0.19508913 0.38397172 6331846
0.055232123 -0.19515681 0.38365406 6331846
0.064936057 -0.19490495 0.38331985 6331846
0.07474269 -0.19498324 0.38288355 6331846
0.084875315 -0.19511418 0.382186 6331846
0.095108293 -0.19511144 0.3815825 6331846
0.10516923 -0.19459635 0.38127071 6331846
0.11462958 -0.1950006 0.38161072 6331846
0.12547083 -0.19381963 0.38241494 6331846
0.13405436 -0.19425169 0.38097855 6331846
0.14482099 -0.19470295 0.3805891 6331846
0.1542384 -0.19331793 0.38109469 6331846
0.16200276 -0.19264998 0.38202414 6331846
-0.11346065 -0.18980008 0.38989589 6331846
-0.10387227 -0.18919744 0.3898403 6331846
-0.095293842 -0.18868819 0.38972333 6331846
-0.084264681 -0.18857515 0.38976082 6331846
-0.075831614 -0.18851234 0.38981324 6331846
-0.064945571 -0.18923889 0.38978839 6331846
-0.055801578 -0.18957803 0.38990483 6331846
-0.044583749 -0.18880802 0.38981491 6331846
-0.034324463 -0.1888143 0.38973966 6331846
-0.025237072 -0.18862113 0.38952619 6331846
-0.014765129 -0.18839672 0.38954967 6331846
-0.004561075 -0.18733296 0.38935918 6331846
0.0049474859 -0.18701263 0.38913032 6331846
0.014923302 -0.18666446 0.38894218 6331846
0.025172589 -0.18561549 0.38860235 6331846
0.035094541 -0.18529509 0.38834822 6331846
0.045214191 -0.1849696 0.3875483 6331846
0.055161685 -0.18521136 0.3864657 6331846
0.065017924 -0.18487453 0.38620609 6331846
0.074805379 -0.18496458 0.38555521 6331846
0.085163705 -0.18508931 0.38469785 6331846
0.095072888 -0.18516177 0.38429895 6331846
0.1048623 -0.18486874 0.38386002 6331846
0.1147508 -0.18506718 0.38348669 6331846
0.12497486 -0.18481976 0.38319102 6331846
0.13481201 -0.18479678 0.38231429 6331846
0.14395288 -0.18446805 0.38269809 6331846
0.15429278 -0.18491478 0.38383982 6331846
0.16468962 -0.18505214 0.38352495 6331846
0.17374641 -0.18209359 0.385268 6331846
0.18627277 -0.18123378 0.38427144 6331846
0.19095443 -0.18035458 0.38270912 6331846
0.039808191 -0.17961881 0.38995835 6331846
0.046314329 -0.17823382 0.38957456 6331846
0.055358641 -0.17714551 0.38894114 6331846
0.064890943 -0.17624675 0.38881546 6331846
0.075385503 -0.17528097 0.38852689 6331846
0.084937438 -0.17520615 0.38764215 6331846
0.094917335 -0.174951 0.38732547 6331846
0.1050185 -0.1750399 0.38633361 6331846
0.11501157 -0.17507994 0.38568282 6331846
0.12486293 -0.17502645 0.38556474 6331846
0.13497809 -0.17490005 0.38490051 6331846
0.14493962 -0.17499895 0.38483292 6331846
0.15518709 -0.17499438 0.38542327 6331846
0.16507249 -0.1749599 0.38520205 6331846
0.17435493 -0.1746548 0.38567421 6331846
0.18339074 -0.17508323 0.38452327 6331846
0.19141158 -0.17735231 0.38283411 6331846
0.20751713 -0.17466243 0.38683367 6331846
0.078515537 -0.16934144 0.38983336 6331846
0.085408188 -0.16866548 0.38968927 6331846
0.095470592 -0.16845126 0.38949698 6331846
0.10544071 -0.1669495 0.38898754 6331846
0.11505069 -0.16526437 0.38858423 6331846
0.12498097 -0.16503367 0.38835442 6331846
0.13501494 -0.16517153 0.38767061 6331846
0.14495678 -0.16505802 0.38750666 6331846
0.1550031 -0.16504343 0.38724795 6331846
0.1653159 -0.16500613 0.3871491 6331846
0.17513016 -0.16489467 0.38707212 6331846
0.18407215 -0.16374548 0.38736305 6331846
0.19546391 -0.16201897 0.3876068 6331846
0.20248717 -0.1651739 0.38739428 6331846
0.11878464 -0.15932421 0.38990837 6331846
0.12515327 -0.15929414 0.3897993 6331846
0.13531052 -0.15849274 0.38960174 6331846
0.14475589 -0.15786809 0.3895039 6331846
0.15535693 -0.15694822 0.3889927 7381697
0.16456163 -0.15629357 0.38903886 7775679
0.17489395 -0.15719292 0.38905051 6791363
0.18523602 -0.15649621 0.38896114 7775424
0.19475566 -0.15491118 0.38879314 6331846
0.20343745 -0.1529633 0.38880935 6331846
0.19869787 -0.14863403 0.3897917 6331846
0.2036877 -0.14827022 0.38959175 6331846
0.0090938956 -0.012238151 0.38058433 11154267
0.010319804 -0.01167819 0.38172707 11352160
-0.015689032 -0.0012987979 0.38083431 11168121
0.0076389378 -0.0039345725 0.38248909 11218523
0.010512926 -0.0073603736 0.38245913 11352418
-0.015131413 0.0068059349 0.3836689 12730224
0.0065822317 0.0050240955 0.38270634 12137060
0.013103961 0.0065746293 0.38639796 12927346
0.020086769 0.0093346611 0.38745859 13980038
-0.023190983 0.012743166 0.38442251 13717121
-0.017622093 0.011392413 0.38248226 14437253
0.0065968907 0.011503934 0.38206279 14042497
0.015452185 0.011524645 0.38304734 13913475
0.022707153 0.015848458 0.38274422 12075117
-0.025003776 0.028976223 0.38131344 4923178
0.019484472 0.027850403 0.38052186 8659777
0.022417523 0.023825416 0.3819541 9841999
-0.023287024 0.031219497 0.38283411 2496279
-0.1911685 -0.22076941 0.39445785 6331846
-0.18847696 -0.22094068 0.39445788 6331846
-0.19019897 -0.21904039 0.39433289 6331846
-0.18574184 -0.21320063 0.39305174 6331846
-0.17522506 -0.21116023 0.39083326 6331846
-0.16753148 -0.21718457 0.39045829 6331846
-0.21353608 -0.20227849 0.39856321 6331846
-0.20740555 -0.20052032 0.39485779 6331846
-0.19292085 -0.20391302 0.39324206 6331846
-0.18461123 -0.20462449 0.3913016 6331846
-0.17775121 -0.20394567 0.3904216 6331846
-0.21156695 -0.19479613 0.39734724 6331846
-0.20494913 -0.1950451 0.39495793 6331846
-0.19521181 -0.19477947 0.39419299 6331846
-0.18527862 -0.19491932 0.39289549 6331846
-0.17547703 -0.19476646 0.39151546 6266309
-0.16522181 -0.19169822 0.39055988 6331846
-0.15618682 -0.19116187 0.39050823 6331846
-0.14326866 -0.19131988 0.39034462 6331846
-0.13435602 -0.19135289 0.39051563 6331846
-0.12549461 -0.19129361 0.39047655 6331846
-0.11842626 -0.19016179 0.39016664 6331846
-0.21066871 -0.18821561 0.39687431 6331846
-0.20458034 -0.18495658 0.39587227 6331846
-0.19513221 -0.18502218 0.39506808 6331846
-0.18515313 -0.18494377 0.39421904 6331846
-0.17525636 -0.18493846 0.39341164 6331846
-0.16518568 -0.18509924 0.3926197 6331846
-0.15505718 -0.18497564 0.39238605 6331846
-0.14487824 -0.18521906 0.39182857 6331846
-0.13487831 -0.18491103 0.3921285 6331846
-0.12495453 -0.18506527 0.39208117 6331846
-0.11507753 -0.18468544 0.39146018 6331846
-0.10529323 -0.18427074 0.39115551 6331846
-0.094885297 -0.1837858 0.39101839 6331846
-0.085222289 -0.18379694 0.39105985 6331846
-0.074740879 -0.18370652 0.39109617 6266309
-0.064908445 -0.18397528 0.39139616 6331846
-0.055092495 -0.18471994 0.39141372 6331846
-0.045013651 -0.18398173 0.39102978 6331846
-0.035072964 -0.18380421 0.39116058 6331846
-0.025161359 -0.18349463 0.39108562 6331846
-0.015202164 -0.18327251 0.39119509 6331846
-0.0052043009 -0.18252333 0.39072675 6331846
0.0049421242 -0.18224701 0.39062187 6331846
0.014350398 -0.18201695 0.39055681 6331846
0.022740118 -0.18092373 0.39027077 6331846
0.034283925 -0.18048847 0.39008331 6331846
-0.21353097 -0.17365418 0.39957267 6331846
-0.20450015 -0.17464237 0.39781988 6331846
-0.1952216 -0.17510371 0.39680088 6331846
-0.18508652 -0.17492791 0.39612281 6266309
-0.17492609 -0.17513755 0.3954789 6331846
-0.16503252 -0.17478755 0.39500853 6266309
-0.15506884 -0.17497726 0.39457098 6331846
-0.14505942 -0.17519739 0.39450932 6331846
-0.13517982 -0.17485912 0.3946178 6331846
-0.12518829 -0.17508465 0.39437392 6331846
-0.11515877 -0.17481919 0.39419508 6331846
-0.10494251 -0.17500836 0.39363742 6331846
-0.095028281 -0.17523681 0.39325267 6331846
-0.084964938 -0.17496701 0.39335179 6331846
-0.075041555 -0.17504042 0.3936286 6331846
-0.06490992 -0.17472917 0.39374015 6331846
-0.054946736 -0.17482907 0.3936649 6331846
-0.045062292 -0.17508025 0.39329833 6331846
-0.034790177 -0.17499816 0.39340347 6331846
-0.024953533 -0.17492634 0.39343423 6331846
-0.015129945 -0.17488508 0.39345017 6331846
-0.0048441798 -0.17504837 0.3929047 6331846
0.0049338317 -0.1750527 0.39277896 6331846
0.014740857 -0.17503716 0.39260289 6331846
0.024850709 -0.17507055 0.39178675 6331846
0.035120137 -0.17510939 0.39126852 6331846
0.044559371 -0.17371538 0.39092281 6331846
0.054188073 -0.17226733 0.39071631 6331846
0.06462016 -0.17141519 0.39043793 6331846
0.071940064 -0.17090248 0.39025515 6331846
-0.2125513 -0.16842039 0.39981526 6331846
-0.20433055 -0.16575375 0.39918253 6331846
-0.1952399 -0.16498314 0.3983281 6331846
-0.18499893 -0.16501452 0.39787936 6331846
-0.1749056 -0.1650487 0.39779678 6266309
-0.1650451 -0.16487743 0.39746612 6331846
-0.15483524 -0.16484502 0.39673424 6266053
-0.14513192 -0.16521269 0.39690217 6331846
-0.13496111 -0.16472934 0.396911 6331846
-0.12489185 -0.16513403 0.39698407 6331846
-0.11482356 -0.16501532 0.39644545 6331846
-0.10484591 -0.16501997 0.39612624 6331846
-0.095062442 -0.16494018 0.39589784 6331846
-0.085005783 -0.1651507 0.39572626 6331846
-0.075034097 -0.16499779 0.39597657 6331846
-0.065078825 -0.1648303 0.39610267 6331846
-0.054895464 -0.16471724 0.39636013 6331846
-0.045130942 -0.1652918 0.39596739 6331846
-0.034901749 -0.16517504 0.39583704 6331846
-0.025034072 -0.1650645 0.39575878 6331846
-0.015193845 -0.16507672 0.39589265 6331846
-0.0049175089 -0.1649832 0.39569318 6331846
0.0049217958 -0.16495791 0.39557233 6331846
0.014757735 -0.16490574 0.39530602 6331846
0.025083428 -0.16499245 0.39454502 6331846
0.035221133 -0.16498239 0.39386582 6331846
0.045001741 -0.16482601 0.39310482 6331846
0.054835118 -0.16487147 0.39274091 6331846
0.065078206 -0.16520236 0.39206511 6331846
0.074974611 -0.16497143 0.39146283 6331846
0.084859744 -0.16342445 0.39114913 6331846
0.094928108 -0.16322885 0.39088655 6331846
0.10434751 -0.16185886 0.39051464 6331846
0.11201916 -0.1605399 0.3902083 6331846
0.19920355 -0.16635433 0.39095822 6331846
0.20152244 -0.16771787 0.39103633 6331846
-0.19340172 -0.15828884 0.3995592 11583426
-0.18512666 -0.15711755 0.39926565 11846340
-0.17485225 -0.15746278 0.39942843 11518147
-0.16486149 -0.15758549 0.39949897 11977154
-0.15463197 -0.15620048 0.39888567 11386817
-0.14496474 -0.15623194 0.39905661 11714753
-0.13501565 -0.15606657 0.39911658 11649214
-0.12466161 -0.15643208 0.39901668 11517885
-0.11477579 -0.1552643 0.39868122 11255486
-0.10514773 -0.15507551 0.39860436 11254973
-0.095048577 -0.1547683 0.39822373 11451837
-0.084959917 -0.15532702 0.398112 10992318
-0.074930899 -0.15503551 0.39846382 11123643
-0.064951263 -0.15501913 0.39847866 11254716
-0.054886274 -0.15480621 0.39859292 11517371
-0.044849735 -0.15490022 0.39842159 11319995
-0.03503219 -0.15493347 0.39827517 11188666
-0.025106449 -0.15501676 0.39826062 11254203
-0.015159404 -0.15533812 0.39830852 11253947
-0.00495516 -0.1551296 0.39801326 11319226
0.0049093426 -0.15512559 0.39794341 11253691
0.014763581 -0.15499987 0.39748278 11188155
0.025044845 -0.15495063 0.39712942 11122618
0.034954932 -0.15503694 0.39695847 10794426
0.044781335 -0.1548565 0.39630201 10400698
0.055025652 -0.15485162 0.39572158 10335161
0.065111615 -0.15520978 0.39481017 9941178
0.074943617 -0.15493818 0.39431116 9875897
0.08500573 -0.15491407 0.39376032 9744570
0.095013432 -0.15488939 0.39285061 9744315
0.10496709 -0.15485564 0.39231536 9416633
0.11488611 -0.15495494 0.39150706 9285051
0.12521277 -0.15416591 0.39138636 9744569
0.13481924 -0.15347144 0.39118055 10269622
0.14497422 -0.1529521 0.39083335 10860214
0.1543645 -0.15198591 0.39076287 11451058
0.16569044 -0.15159948 0.39060408 11450800
0.17506705 -0.15218723 0.3908332 11319985
0.18461564 -0.15150531 0.39049137 11516338
0.19254628 -0.15089692 0.39037004 6331846
-0.10309982 -0.14961269 0.39993644 11714744
-0.094605789 -0.14902365 0.39968047 11846074
-0.085486345 -0.14928477 0.39976761 11976890
-0.077603266 -0.14986297 0.39991564 11845817
-0.063233748 -0.14960569 0.39995727 11845563
-0.054991916 -0.14947948 0.39995724 12042426
-0.044266876 -0.14899854 0.39987639 12172728
-0.035696749 -0.14911088 0.39984789 12041657
-0.024077706 -0.14948066 0.39978227 12304057
-0.014494793 -0.14908841 0.39977762 12303803
-0.0047075506 -0.14828646 0.39960277 12369337
0.0049013286 -0.14811808 0.39952767 12303547
0.014784669 -0.1481141 0.39938027 12238008
0.025565905 -0.14729346 0.39916056 12106935
0.035029259 -0.14636546 0.39908737 11975606
0.045086499 -0.14553213 0.39882576 11778740
0.055183072 -0.14507979 0.39827254 11647410
0.065067545 -0.14505458 0.39766964 11450802
0.075006463 -0.14513318 0.39726835 11385264
0.084994234 -0.14520451 0.39657333 11385266
0.094877601 -0.14505196 0.39572355 11516083
0.10501015 -0.14506564 0.39531851 11450546
0.11499263 -0.14498095 0.39490753 11450800
0.12492251 -0.14497255 0.39430377 11385264
0.13493192 -0.14511737 0.39384851 11319729
0.14501156 -0.14515293 0.39308941 11385263
0.15522791 -0.14483969 0.39273697 11450800
0.16498257 -0.14510776 0.39263928 11385264
0.17495869 -0.14488432 0.39308858 11319728
0.18495938 -0.14530252 0.39240378 11385265
0.19480495 -0.14466783 0.39215067 6660036
0.2045898 -0.14311464 0.39297193 6331846
0.21402131 -0.14397296 0.39163005 6331846
0.04967748 -0.13978787 0.39995727 11713460
0.055801746 -0.13911062 0.39971182 11581619
0.065335073 -0.1381003 0.39947715 11515823
0.075362265 -0.13751225 0.39930868 11253678
0.085114837 -0.13620247 0.39900917 11253935
0.095052846 -0.13625816 0.39861462 11319472
0.10506631 -0.13501489 0.39853075 11253936
0.1150272 -0.13493077 0.39796785 11253935
0.12498663 -0.13496132 0.39704365 11319469
0.13509057 -0.13501212 0.39633736 11319727
0.14496514 -0.13519754 0.39561659 11188398
0.15494052 -0.13494915 0.39538047 11319469
0.16504289 -0.13493131 0.39496934 11385005
0.17535052 -0.13496253 0.39518076 11253932
0.18495843 -0.13495904 0.39471802 11253934
0.19502878 -0.13495293 0.394472 7250625
0.20490378 -0.13496548 0.39493078 6331846
0.21180528 -0.13481858 0.39600509 6331846
0.10818123 -0.12918183 0.39986005 11253932
0.11556216 -0.12843044 0.39965403 11122348
0.12564214 -0.12729223 0.39929309 11122347
0.13514863 -0.12583634 0.39875889 11187884
0.1449416 -0.12519342 0.39809793 11122347
0.15509062 -0.12484682 0.39818507 11056811
0.16478717 -0.12501524 0.39789793 11122347
0.17489929 -0.12491901 0.39763817 11122346
0.18496171 -0.1249236 0.39700505 11187881
0.19492686 -0.12504996 0.39692184 7841213
0.20491415 -0.12487752 0.3974503 6331846
0.21465853 -0.12510252 0.39789882 6331846
0.22287329 -0.12343296 0.39931396 6331846
0.14628695 -0.11889073 0.39961797 10991018
0.154557 -0.11855005 0.39953357 11056298
0.16530375 -0.11853496 0.39965418 10990759
0.17522392 -0.11867893 0.39965829 10859691
0.18523028 -0.11717159 0.39931038 10990763
0.19462022 -0.11774518 0.39933476 8693687
0.20494652 -0.1178184 0.39943138 6331846
0.21404938 -0.11817084 0.39952961 6331846
0.010333693 -0.012902364 0.39095822 11351646
0.0095123146 -0.00340352 0.3912082 11284061
0.010776184 -0.0025827726 0.39203104 11351136
-0.021888129 0.0089759305 0.39481011 13192317
-0.01876241 0.0069942353 0.39464533 12536437
0.011167677 0.00031794561 0.3912082 11679075
-0.025315087 0.011754017 0.39491805 12996989
-0.21722578 -0.20355301 0.40156126 6331846
-0.21423239 -0.19231826 0.40008226 6331846
-0.22601293 -0.17112885 0.40341845 6331846
-0.21806018 -0.17197907 0.40028012 6331846
-0.24019957 -0.16084805 0.40783143 6331846
-0.2337935 -0.16193616 0.40468079 6331846
-0.22468172 -0.16484827 0.40251282 6594758
-0.21540992 -0.16405155 0.40074465 6856902
-0.20694573 -0.1615773 0.40044641 6856902
-0.24055867 -0.15489341 0.40874043 6331846
-0.23451379 -0.15491988 0.40559101 6331846
-0.22514841 -0.15489422 0.40348074 10730950
-0.21510069 -0.15499371 0.40247262 12372164
-0.20490885 -0.15511526 0.40181214 12437444
-0.19554047 -0.15375365 0.4012464 12371907
-0.18500854 -0.15215172 0.40094766 12306115
-0.17503262 -0.15239421 0.40069968 12371394
-0.16506881 -0.15266448 0.40062255 12371392
-0.15604436 -0.15131651 0.40036863 12305857
-0.14485458 -0.15123244 0.4003807 12240317
-0.13489926 -0.15113077 0.40035728 12174270
-0.12576397 -0.15164329 0.40038097 12043196
-0.11749043 -0.15037662 0.40022117 11977402
-0.24214166 -0.1451086 0.40840483 6331846
-0.23524076 -0.14485036 0.40710795 6331846
-0.22499573 -0.14475161 0.40498614 11124676
-0.21515048 -0.14510746 0.4039278 12371906
-0.20512922 -0.14501838 0.40331876 12371648
-0.19510487 -0.14488143 0.40343487 12371647
-0.18482572 -0.14518856 0.40292642 12240319
-0.17510946 -0.14489502 0.40285644 12240319
-0.16503824 -0.14517073 0.4025296 12240061
-0.15486033 -0.14495829 0.40233502 12174525
-0.14496978 -0.14507957 0.40235144 12108731
-0.13496092 -0.14478101 0.40216205 12043194
-0.12506583 -0.1451785 0.40207359 12042938
-0.1149318 -0.14489572 0.40163115 11911610
-0.10500826 -0.14499173 0.401265 11846073
-0.094868153 -0.14398591 0.40125826 11845816
-0.084913857 -0.14393085 0.40132388 11911353
-0.074942917 -0.14486952 0.40140125 11845560
-0.065212391 -0.1448655 0.40141118 11910840
-0.055070017 -0.14461777 0.40130079 11976632
-0.045211196 -0.14411741 0.4009791 12041654
-0.035094339 -0.14424579 0.40123329 12107190
-0.024828546 -0.14427921 0.40121201 12238263
-0.015141312 -0.14396265 0.4009831 12369337
-0.0050373897 -0.14329667 0.40085137 12434873
0.0047500911 -0.1430939 0.40093562 12434616
0.014904585 -0.14319168 0.40080762 12303544
0.024544364 -0.14264107 0.4006232 12171957
0.034896594 -0.14146835 0.40031672 11909813
0.042651054 -0.14096135 0.40020722 11778740
-0.24115801 -0.13746253 0.40897194 6331846
-0.23474301 -0.13517964 0.40841761 6331846
-0.22483259 -0.13510211 0.4067257 12043711
-0.21504073 -0.13495992 0.40616474 12306110
-0.20471501 -0.13510896 0.40549049 12371391
-0.19483696 -0.13501297 0.40542567 12305597
-0.18489683 -0.13480605 0.40524477 12240060
-0.17480844 -0.13518667 0.40513027 12174523
-0.16492634 -0.13477662 0.40506777 12174523
-0.15497135 -0.13512021 0.40491283 12108730
-0.14516315 -0.13515927 0.40522394 11977401
-0.13515472 -0.13485986 0.40511349 11911609
-0.12500131 -0.13515031 0.40472013 11911608
-0.11495997 -0.13480179 0.40419796 11845815
-0.10502253 -0.13520442 0.40385738 11845560
-0.095083021 -0.13484849 0.40383294 11911095
-0.084964365 -0.13486846 0.4039191 11780023
-0.075020485 -0.13472678 0.40422943 11713972
-0.065029651 -0.13504885 0.40424803 11845045
-0.054922629 -0.13523346 0.40407246 11910582
-0.044884462 -0.13490078 0.40349618 11976118
-0.034932949 -0.13494898 0.40366352 12107190
-0.024925722 -0.13480122 0.40349323 12303541
-0.014872476 -0.13484806 0.40308931 12500407
-0.0051098019 -0.13492644 0.40294871 12565687
0.0049810568 -0.13489978 0.4029533 12500150
0.014763544 -0.13492532 0.4026427 12434101
0.025107164 -0.13527018 0.40215325 12237491
0.035089541 -0.13533044 0.40181038 12040627
0.044965152 -0.13524488 0.40129375 11712946
0.054740924 -0.13431494 0.4010433 11647410
0.064593367 -0.13334391 0.40088019 11450286
0.074522361 -0.13259695 0.40055415 11253677
0.084800318 -0.13124661 0.40024248 11385006
0.09467002 -0.13094197 0.40029073 11253933
0.10134949 -0.13044414 0.40013227 11056555
-0.23191233 -0.12627316 0.40945166 6331846
-0.22492582 -0.12505271 0.40838572 12240318
-0.2151313 -0.12487683 0.4080739 12240319
-0.20511292 -0.12499198 0.40759587 12174524
-0.19515578 -0.12490612 0.40742618 12043451
-0.18501668 -0.12505755 0.40744174 12043194
-0.17493129 -0.1248655 0.40732548 11977402
-0.1652104 -0.12507974 0.40753505 11911609
-0.15489432 -0.12512521 0.40748793 11780535
-0.14487939 -0.12488449 0.4077085 11780278
-0.13475309 -0.12505752 0.40756604 11714486
-0.12498728 -0.12506096 0.40732372 11648949
-0.11495344 -0.12477356 0.40694556 11714229
-0.10499094 -0.12524022 0.40663096 11714228
-0.094842702 -0.12505233 0.40638095 11648692
-0.085013114 -0.12482937 0.40655881 11648179
-0.074974597 -0.12459455 0.4065913 11582642
-0.064908266 -0.12488788 0.40670374 11648178
-0.055159833 -0.12534258 0.40668929 11713201
-0.045065776 -0.12511107 0.40624487 11844532
-0.03504163 -0.1250059 0.40613362 12041140
-0.025036948 -0.12490368 0.40595308 12303284
-0.015140387 -0.1250349 0.40556976 12630453
-0.0050707306 -0.12507948 0.40516883 12760499
0.0048856316 -0.12502922 0.40494138 12760242
0.014832901 -0.12495051 0.40455225 12629426
0.025275934 -0.12529837 0.4042525 12171185
0.035169825 -0.12536797 0.40397948 11843248
0.045182426 -0.12513107 0.40348798 11515566
0.055069346 -0.1249415 0.40337887 11384492
0.064995632 -0.1252865 0.40268391 11253164
0.07505393 -0.124992 0.40232599 11122090
0.08483465 -0.12499304 0.40179154 11056556
0.095070958 -0.12473421 0.40185234 11056556
0.10478055 -0.12470354 0.40129665 11056555
0.11485183 -0.12349931 0.40093565 11056813
0.12441129 -0.12257869 0.40060005 11187883
0.13327233 -0.12107415 0.40025863 11253166
0.22496544 -0.12069251 0.40056303 6331846
-0.22395581 -0.11778242 0.40953296 12109248
-0.21490937 -0.11760665 0.40951985 12108991
-0.20491733 -0.11728322 0.40933308 12043197
-0.19467591 -0.11680302 0.40920115 11977403
-0.18524767 -0.11693282 0.40924463 11977402
-0.17485173 -0.11702123 0.40937361 11911865
-0.164912 -0.1171829 0.40933824 11846071
-0.15525414 -0.11761708 0.4093312 11780280
-0.14471324 -0.11727653 0.40935478 11780277
-0.13525845 -0.11711117 0.40930507 11780021
-0.12475761 -0.11721715 0.40929139 11517877
-0.11510975 -0.1172758 0.40919647 11713973
-0.10462799 -0.11638769 0.40898183 11582900
-0.095105052 -0.11580418 0.40883461 11713715
-0.084973082 -0.11533257 0.40896654 11582386
-0.07507062 -0.11534517 0.40889639 11582386
-0.064982101 -0.11602255 0.40900084 11713202
-0.054774862 -0.11630497 0.4087868 11712945
-0.044817738 -0.1151894 0.40862304 11647151
-0.036377203 -0.11613736 0.40832573 11778224
-0.026110789 -0.11914603 0.40693307 12562351
-0.011149853 -0.11954943 0.40595663 15040931
-0.0043714526 -0.11927956 0.40557161 14973856
0.0048675137 -0.11884436 0.40499467 15627942
0.015176749 -0.11853766 0.40467113 15300771
0.025729809 -0.1179553 0.40477249 13929638
0.03558477 -0.11558033 0.40564656 11840680
0.044844043 -0.11505118 0.40610719 11317672
0.054873329 -0.11464673 0.4059723 11121320
0.065020069 -0.11506322 0.40531525 11055784
0.074983276 -0.11461678 0.40502176 10990504
0.084987059 -0.11474609 0.40461212 10924968
0.094948739 -0.11492553 0.40416041 10924968
0.10507195 -0.11482711 0.4037244 10794152
0.11490759 -0.11498768 0.40303561 10924971
0.12491073 -0.11514902 0.40225887 10991020
0.13513748 -0.11508214 0.40165472 10990762
0.14475413 -0.11430895 0.40114582 10990762
0.1552079 -0.11349694 0.401077 10925224
0.16486739 -0.11347464 0.40078416 10990759
0.17487179 -0.11381271 0.40090927 10924965
0.18459409 -0.11225712 0.40063772 10924966
0.19542979 -0.11280682 0.40080824 8497078
0.2051923 -0.11276173 0.4006978 6331846
0.21526235 -0.11343484 0.40076223 6331846
0.22317803 -0.1150855 0.40078029 6331846
0.23438811 -0.11485208 0.40100303 6331846
-0.043163829 -0.10968514 0.40995625 11516077
-0.038784992 -0.10965937 0.40995622 11515563
0.037868522 -0.10654449 0.40835926 11184803
0.045001298 -0.10499772 0.40856281 10988707
0.055013798 -0.10472921 0.40843877 10858404
0.065062471 -0.10461931 0.40803564 10858663
0.074990116 -0.10479864 0.40747908 10858918
0.085063517 -0.10460934 0.40701178 10859174
0.094983555 -0.10478473 0.40654358 10793383
0.10498705 -0.10498847 0.40611309 10793383
0.11509955 -0.10479506 0.40535182 10728104
0.12513596 -0.1050524 0.40495014 10727847
0.1349417 -0.10514153 0.40426931 10793897
0.14481331 -0.10526761 0.40349272 10728104
0.15503924 -0.10480571 0.40350166 10728359
0.16493568 -0.10486206 0.40288249 10793637
0.17498185 -0.1051838 0.40287936 10662565
0.18502748 -0.10475839 0.40265635 10924453
0.1949631 -0.10499349 0.40271831 9021874
0.20485818 -0.10512198 0.4024488 6331846
0.2151527 -0.10499635 0.40270603 6266309
0.22269811 -0.1042674 0.40333903 6331846
0.04861496 -0.099206612 0.40991458 10791842
0.054080103 -0.098900519 0.40985197 10857890
0.065833233 -0.098296322 0.40966451 10923685
0.075020954 -0.097634703 0.40949932 10924196
0.085243486 -0.097205386 0.40917811 10858660
0.095245458 -0.096519493 0.40899372 10858918
0.10544226 -0.095254675 0.40881068 10727588
0.1149364 -0.094866708 0.40809652 10662052
0.12490559 -0.094996713 0.40722281 10727845
0.13501333 -0.094936684 0.40649009 10662309
0.1450083 -0.095125258 0.40609336 10728100
0.15482748 -0.095028944 0.40607098 10793124
0.16501854 -0.094803885 0.40587848 10596515
0.17501777 -0.095149569 0.40587187 10727587
0.18489967 -0.09505441 0.40576616 10923939
0.19512431 -0.095020957 0.40555272 9808810
0.2050878 -0.095167704 0.40567103 6331846
0.21496262 -0.095022313 0.40580305 6331846
0.22414044 -0.095191941 0.40604797 6331846
0.23831448 -0.094159216 0.40913245 6331846
0.24088627 -0.095924877 0.40934917 6331846
0.10915263 -0.089001291 0.4098812 10530726
0.11540763 -0.088576056 0.40973347 10661796
0.12585238 -0.087422475 0.4093709 10596259
0.13523063 -0.085982323 0.40890431 10530979
0.14533086 -0.085882805 0.40871337 10661794
0.15500157 -0.08511544 0.40830439 10596259
0.16491178 -0.084954612 0.40837058 10530724
0.17497498 -0.085125268 0.40829298 10530722
0.18503682 -0.084919162 0.40847802 10596002
0.1947176 -0.085000359 0.4080652 10268070
0.20487322 -0.085203767 0.40847778 6331846
0.21476878 -0.084906176 0.40851304 6331846
0.22463639 -0.084269971 0.40899649 6331846
0.23511431 -0.084791616 0.40855345 6331846
0.244069 -0.083141923 0.40872294 6331846
0.15667598 -0.079224691 0.40985042 10661796
0.1658722 -0.079376817 0.40981033 10530467
0.17442639 -0.079059869 0.40967733 10595746
0.18732838 -0.079284772 0.40989375 10727074
0.19518308 -0.078651361 0.40971819 10595999
0.20576139 -0.079505987 0.40975767 6331846
0.21478437 -0.078517534 0.40973616 6331846
0.22694956 -0.079418123 0.40985623 6331846
0.23550534 -0.077523798 0.409444 6331846
0.24232876 -0.077492602 0.40920004 6331846
-0.023280572 0.0087986793 0.40058219 13258875
-0.02834045 0.013027961 0.40020725 12210548
-0.24389036 -0.16097282 0.41161227 6331846
-0.24295059 -0.15576613 0.41083109 6331846
-0.24569385 -0.14173995 0.41135189 6331846
-0.25248843 -0.13426949 0.4151983 6331846
-0.24514227 -0.13299601 0.41124213 6331846
-0.23881464 -0.13092962 0.41018534 6331846
-0.25377315 -0.12453493 0.41459593 6331846
-0.24517903 -0.12504075 0.41171762 6331846
-0.23657799 -0.12409086 0.41085875 6331846
-0.25205392 -0.11584058 0.41513065 6331846
-0.24460222 -0.11517021 0.41344941 6331846
-0.23503648 -0.11490332 0.41234681 7053764
-0.22545838 -0.11327278 0.41074121 12174782
-0.21492106 -0.11273379 0.41059345 12043452
-0.20504937 -0.11216448 0.4105517 12174011
-0.19516096 -0.11190114 0.41055918 12174011
-0.18460226 -0.1118991 0.41047823 12042937
-0.17515378 -0.11224288 0.41041073 11846072
-0.16483232 -0.11219137 0.4105517 11911352
-0.1546306 -0.11242258 0.4106417 11845815
-0.14559373 -0.11250965 0.41068417 11780022
-0.13485324 -0.11211578 0.41065711 11714742
-0.1254992 -0.11225043 0.41079566 11714229
-0.11515202 -0.11236018 0.41085136 11714228
-0.1062945 -0.11162559 0.41047081 11582898
-0.095108718 -0.11079016 0.4102605 11713713
-0.085732386 -0.11051003 0.41019151 11647665
-0.073829822 -0.11036686 0.41019061 11582385
-0.065079868 -0.11094128 0.41043052 11516592
-0.056043383 -0.11123085 0.41041556 11581873
-0.049321562 -0.11065128 0.41008118 11516333
-0.25351709 -0.10479221 0.41574219 6331846
-0.24478629 -0.10501274 0.41470709 6331846
-0.23514223 -0.10497238 0.41408819 7579076
-0.22479185 -0.10487112 0.4126958 12108987
-0.21518177 -0.10503419 0.41240686 12043195
-0.20489189 -0.10491477 0.41211832 12043194
-0.19506167 -0.10505851 0.41226262 11977401
-0.18493588 -0.10507139 0.41197252 11911608
-0.17492492 -0.10497765 0.41197735 11846072
-0.16503213 -0.10487238 0.4124352 11845815
-0.15509075 -0.10510976 0.41244441 11780022
-0.14493465 -0.10507722 0.41267157 11714485
-0.13494553 -0.10511367 0.41288441 11648692
-0.12490164 -0.10479586 0.4129568 11583156
-0.11490987 -0.10503539 0.41273689 11517362
-0.10479511 -0.10510342 0.4122563 11451570
-0.094886713 -0.10507658 0.41207463 11516849
-0.084898949 -0.10479364 0.41188759 11451056
-0.075103223 -0.10465122 0.41181207 11516336
-0.064985394 -0.10499876 0.41197309 11450798
-0.054734044 -0.10518812 0.41197476 11515822
-0.045147683 -0.10491494 0.41145906 11383979
-0.038871869 -0.10477079 0.41170958 11383722
0.036810756 -0.10125794 0.41024786 11118493
0.042061143 -0.10009854 0.41017491 10856863
0.23957986 -0.10127975 0.41051865 6331846
0.2425005 -0.10206948 0.41080606 6331846
-0.25311902 -0.095308855 0.41834164 6331846
-0.2451677 -0.095022298 0.41778117 6331846
-0.23478615 -0.095172919 0.41604349 8170178
-0.22491719 -0.095006235 0.4153797 11911867
-0.21488307 -0.094924413 0.41519898 11977403
-0.20494846 -0.095163956 0.41469082 11911865
-0.19490148 -0.094924204 0.41467088 11911608
-0.18495159 -0.095039554 0.41454339 11846072
-0.17484155 -0.09502326 0.41449633 11780534
-0.16511633 -0.095110722 0.415223 11714484
-0.15489662 -0.095075019 0.41489157 11582900
-0.14494833 -0.094959423 0.41552186 11648434
-0.13501129 -0.094848491 0.41553149 11648434
-0.12509553 -0.095093578 0.41533926 11582642
-0.11509506 -0.095171712 0.41530287 11582641
-0.10514425 -0.095121153 0.41501245 11451312
-0.095115587 -0.094794162 0.41497764 11451055
-0.085094348 -0.094793826 0.41494513 11385262
-0.07495641 -0.095036805 0.4144842 11385004
-0.064891085 -0.095392384 0.41425672 11384492
-0.055035379 -0.095249794 0.41434881 11318443
-0.045238785 -0.095046811 0.41371801 11186600
-0.03623905 -0.093978144 0.41408938 11120036
-0.027821237 -0.09122429 0.41510561 10526869
0.019241387 -0.091464929 0.41530287 10454659
0.025533011 -0.092601508 0.4138779 10523789
0.035276365 -0.094538122 0.41203228 10658457
0.044993345 -0.094449438 0.41149744 10659996
0.055005986 -0.093978681 0.41122904 10791840
0.064732917 -0.093497045 0.41115639 10858146
0.075188689 -0.092603229 0.41079533 10793123
0.084644601 -0.092221417 0.41069627 10662052
0.094535351 -0.091622286 0.41051444 10662310
0.10212605 -0.090866797 0.4102729 10662053
0.24151753 -0.099921867 0.41037282 6331846
-0.25257787 -0.088609532 0.41980678 6331846
-0.24449147 -0.087875143 0.41969916 6331846
-0.23434125 -0.08549989 0.41864204 9548480
-0.22506101 -0.08521007 0.41802564 11977658
-0.21498559 -0.084951848 0.41781244 11977401
-0.20501757 -0.085029051 0.41735002 11846073
-0.19506954 -0.085145719 0.41702366 11911608
-0.18499263 -0.084826574 0.41691235 11845815
-0.17494038 -0.085099414 0.41706669 11780022
-0.16502817 -0.08496511 0.41755381 11714228
-0.15487812 -0.08506202 0.41723105 11582644
-0.14515671 -0.085121296 0.41790935 11582642
-0.13508625 -0.084999375 0.41800281 11517106
-0.12495553 -0.085101917 0.41774523 11582383
-0.11486746 -0.08494769 0.41775072 11451055
-0.10488904 -0.0848061 0.41753775 11319983
-0.0948257 -0.085090168 0.4173241 11254188
-0.084831446 -0.084987842 0.41731092 11319466
-0.074935392 -0.085225888 0.41694233 11253419
-0.065095805 -0.085131466 0.41685325 11121833
-0.055196114 -0.084963277 0.41666535 11055783
-0.044946529 -0.08494395 0.41619229 11055013
-0.034823116 -0.084815681 0.41605031 10659740
-0.026457164 -0.084736429 0.41600949 10263698
0.01909777 -0.08755891 0.41565412 9866371
0.025201453 -0.085085236 0.41544247 10395283
0.034848463 -0.084990785 0.41427714 10462103
0.04497502 -0.084971584 0.41387057 10397595
0.05513563 -0.085003525 0.41364905 10660766
0.064970843 -0.084755577 0.41362444 10661024
0.074892819 -0.08479353 0.41300848 10596001
0.085006878 -0.084864289 0.41246182 10596259
0.094950818 -0.085067965 0.41176695 10596516
0.10483343 -0.084833995 0.41125813 10399651
0.11480032 -0.083537228 0.41104925 10464932
0.12440465 -0.082645796 0.41087872 10399396
0.13423124 -0.08100345 0.41043204 10465443
0.14393705 -0.080918767 0.4103311 10399651
-0.23161142 -0.0786459 0.41985101 11911609
-0.22536591 -0.078760363 0.41966236 11780793
-0.21486425 -0.07857129 0.41959921 11977401
-0.20474198 -0.077471137 0.41944522 11911352
-0.19479677 -0.0763731 0.41896245 11780279
-0.18510646 -0.076312654 0.41896421 11649206
-0.17510676 -0.076474763 0.41917956 11648950
-0.16511342 -0.076951422 0.41940063 11779765
-0.15539002 -0.077574782 0.4192667 11648435
-0.14464839 -0.077855334 0.41948256 11517362
-0.13502613 -0.077472456 0.41949052 11451570
-0.12519327 -0.077791035 0.41952825 11451313
-0.11525864 -0.077610701 0.41956437 11385263
-0.10502831 -0.077558175 0.4194375 11319726
-0.094963968 -0.077600807 0.41930154 11188397
-0.085041553 -0.076936215 0.41929296 11122601
-0.075211033 -0.076637179 0.41915461 10991015
-0.064962305 -0.075733729 0.41904649 10990246
-0.054838777 -0.075275168 0.41889772 10923940
-0.044786848 -0.0750698 0.41857705 10988962
-0.034976181 -0.074974701 0.41821146 10527897
-0.026121315 -0.074767664 0.41822681 9935759
0.026452728 -0.075281411 0.41712338 10198416
0.034974344 -0.075173929 0.41639858 10396566
0.044896588 -0.075331725 0.41640118 10463129
0.055091597 -0.075158164 0.4162119 10529437
0.0651455 -0.075021744 0.41621763 10529693
0.075023025 -0.074993506 0.41581139 10529950
0.085017197 -0.075328991 0.41508535 10530207
0.094986834 -0.075287372 0.41431776 10530465
0.10493552 -0.075130686 0.41397706 10464929
0.11510653 -0.07498157 0.41379172 10464673
0.12499922 -0.074968614 0.41297323 10399395
0.13503389 -0.07502754 0.41222322 10464930
0.14508343 -0.074892588 0.41217676 10399395
0.15475166 -0.074363217 0.4114686 10530467
0.16486935 -0.074299321 0.41117737 10399137
0.17491633 -0.074049585 0.41114041 10530209
0.18493274 -0.074757531 0.41135263 10464930
0.19493781 -0.07385771 0.41092077 10464928
0.20496714 -0.07436657 0.41109812 6659779
0.21494946 -0.073754132 0.41101119 6331846
0.22481197 -0.07472235 0.41091812 6331846
0.2342981 -0.073029153 0.41058114 6331846
0.24223453 -0.071593091 0.41077194 6331846
0.25425121 -0.075276151 0.41728872 6331846
-0.052057128 -0.069968425 0.41995516 10792609
-0.043884788 -0.06928502 0.41975954 10923681
-0.034893356 -0.068286829 0.41959292 10331287
-0.025702933 -0.068225309 0.41955802 9673099
0.027470218 -0.06745816 0.41902497 10132623
0.035260972 -0.066193372 0.41893134 10264466
0.045143511 -0.065541483 0.41896719 10331286
0.054815359 -0.065000221 0.41848317 10463387
0.064937428 -0.065045685 0.41848436 10463901
0.075087301 -0.064927906 0.41807568 10463901
0.08515735 -0.065009877 0.41779941 10267549
0.095108539 -0.065095745 0.41751042 10267807
0.10504963 -0.065147869 0.41717705 10267806
0.11505419 -0.065199412 0.41700497 10399136
0.12503879 -0.065293223 0.41610092 10399136
0.13488403 -0.065132566 0.4150345 10398879
0.14500616 -0.064878598 0.41484812 10333599
0.15505119 -0.06505888 0.41434225 10399135
0.16498375 -0.06507355 0.41372797 10333600
0.17508146 -0.064977303 0.41365284 10464416
0.18506899 -0.065055028 0.41397518 10529953
0.19486961 -0.0650139 0.41353008 10464672
0.20501097 -0.064949095 0.41347152 6987711
0.2149961 -0.065136835 0.41319454 6331846
0.22512159 -0.065039642 0.41332442 6331846
0.2348128 -0.064992696 0.41279423 6331846
0.24352686 -0.065575235 0.41349015 6331846
0.25360271 -0.064066842 0.41622159 6331846
0.055783946 -0.059339192 0.41988567 10134678
0.064036176 -0.059394836 0.41995519 10266778
0.075244091 -0.059060518 0.41975778 10398108
0.085130721 -0.05854664 0.41965526 10333084
0.095039152 -0.057736646 0.41934776 10267293
0.1052206 -0.057418104 0.41928643 10202012
0.11511675 -0.056279007 0.41922146 10202013
0.12510772 -0.055449966 0.41889873 10333599
0.13501008 -0.054834578 0.41825265 10267549
0.14499341 -0.054878857 0.41784725 10202015
0.15494007 -0.054982323 0.41723678 10136734
0.16506104 -0.05507775 0.41690326 10202015
0.17493834 -0.055003054 0.41684523 10202015
0.18502367 -0.054934651 0.41708487 10333343
0.19507208 -0.05509606 0.41693708 10464413
0.20500571 -0.055162217 0.41633397 7578297
0.21507765 -0.055110339 0.41631299 6331846
0.2250372 -0.054778647 0.41700229 6331846
0.23506616 -0.054951645 0.41693497 6331846
0.24485363 -0.054785121 0.41620177 6331846
0.25206256 -0.055783398 0.4157356 6331846
0.13666481 -0.049181305 0.41995519 10201501
0.14590302 -0.049004223 0.41982129 10202012
0.1560255 -0.047513954 0.41942656 10136220
0.16476928 -0.046888832 0.41924053 10070684
0.17541693 -0.046541277 0.41924411 10136221
0.18469794 -0.046391606 0.41916919 10202012
0.19555654 -0.047694303 0.41934136 10333086
0.20498703 -0.046359189 0.41894823 8233904
0.21500252 -0.0463323 0.41890827 6331846
0.22484861 -0.046306919 0.41909575 6331846
0.23544848 -0.046158519 0.41883022 6331846
0.24469426 -0.045171641 0.41816151 6331846
0.25213131 -0.045844298 0.41788125 6331846
0.26359475 -0.047223147 0.41833031 6331846
0.24393225 -0.03908357 0.41973639 6331846
-0.2634308 -0.1005391 0.42495459 6331846
-0.2620692 -0.095585622 0.42274237 6331846
-0.25725999 -0.093930647 0.42103314 6331846
-0.26166126 -0.085747741 0.42232549 6331846
-0.25502828 -0.08434014 0.42089576 6331846
-0.24528675 -0.083026864 0.42051068 6331846
-0.23833543 -0.081758484 0.42028013 6660037
0.020580854 -0.082089745 0.42126179 9803657
-0.26337457 -0.074928045 0.42612806 6331846
-0.25482151 -0.074825868 0.42309523 6331846
-0.24496563 -0.075376928 0.42216453 6331846
-0.23514998 -0.074611329 0.42141744 10007999
-0.22488399 -0.073553935 0.42107114 11911866
-0.21508273 -0.073631853 0.42110696 11977145
-0.20524414 -0.072628371 0.42072704 11780279
-0.19541886 -0.071252719 0.42043889 11714743
-0.18456368 -0.071614921 0.42046791 11714485
-0.17470878 -0.071607523 0.42043605 11714230
-0.16491194 -0.072154365 0.4205431 11451571
-0.15447778 -0.072322831 0.42063853 11451571
-0.14523959 -0.072737128 0.42085692 11582386
-0.13480312 -0.072340466 0.42086083 11516849
-0.12497395 -0.072854407 0.42090109 11385519
-0.11491422 -0.072810836 0.42078692 11254189
-0.10502991 -0.07270629 0.42060888 11188653
-0.095382586 -0.072496034 0.42070901 11122859
-0.085346095 -0.071782157 0.42054445 11122343
-0.07498692 -0.071498126 0.42045784 10925223
-0.065322436 -0.070731953 0.42029011 10858919
-0.056999575 -0.070020288 0.42014262 10858404
0.021482911 -0.074869677 0.42352182 9672328
-0.2620939 -0.065950342 0.42751914 6331846
-0.25504053 -0.064846046 0.42594069 6331846
-0.24514058 -0.065407902 0.42491186 6331846
-0.23492478 -0.064781725 0.42364544 10598586
-0.22495528 -0.064724945 0.42334193 11846071
-0.21499804 -0.065236382 0.42321986 11911351
-0.20507532 -0.065092586 0.42273322 11648949
-0.19480248 -0.064781509 0.42213702 11648950
-0.18511432 -0.065059789 0.42273018 11583156
-0.17513384 -0.065162271 0.42249066 11582900
-0.16505124 -0.065088801 0.42246914 11648435
-0.15500458 -0.065077752 0.42243889 11451314
-0.14497824 -0.064844452 0.42292333 11451057
-0.134937 -0.064765126 0.42311469 11319985
-0.12497015 -0.065161817 0.42285597 11319728
-0.11498619 -0.064948998 0.42248434 11254190
-0.10487228 -0.064845525 0.42243981 11253675
-0.094908454 -0.064818114 0.42280999 11122346
-0.084901534 -0.06505809 0.4224731 11056295
-0.07483466 -0.065050408 0.42225233 10990246
-0.064845219 -0.06493149 0.42181122 10923940
-0.054906607 -0.064826213 0.42139807 10923682
-0.045232609 -0.064286791 0.42108461 10988960
-0.035283923 -0.063169472 0.42093536 10396309
-0.026246818 -0.063050941 0.42099902 9803657
0.024111509 -0.064104609 0.42266247 9935500
0.034877561 -0.061098691 0.42032614 10264467
0.043642581 -0.060589001 0.42027181 10396309
-0.26071972 -0.059254818 0.42953748 6331846
-0.25408533 -0.05552417 0.42897442 6331846
-0.24496402 -0.055222634 0.42774546 6331846
-0.2347189 -0.054845247 0.42626241 11386039
-0.2252287 -0.054714371 0.4264085 11714485
-0.21501584 -0.055248298 0.42560455 11714486
-0.20498911 -0.055091932 0.4254635 11582900
-0.19482963 -0.05490727 0.4252612 11517108
-0.18491389 -0.054826707 0.42543358 11582642
-0.17482947 -0.054879054 0.42524123 11517105
-0.16512649 -0.055059694 0.42507827 11451313
-0.15496805 -0.055287618 0.42510599 11451311
-0.14495291 -0.055094432 0.42535755 11253932
-0.13501695 -0.055137876 0.42571309 11253933
-0.12501436 -0.055039495 0.42567331 11122347
-0.11495428 -0.054806028 0.42505622 11188140
-0.10499065 -0.054786514 0.42511183 11122347
-0.095073 -0.054775678 0.42534524 11056297
-0.085127816 -0.055123277 0.42531094 10990246
-0.075240605 -0.055098385 0.42503473 10924195
-0.065231912 -0.054964628 0.424611 10792352
-0.055246025 -0.054886732 0.42426717 10791582
-0.045373987 -0.054973699 0.423628 10726045
-0.035259109 -0.055081468 0.42313761 10264724
-0.025964355 -0.055046625 0.42309883 9606536
0.019013971 -0.055909172 0.4219549 7368546
0.024996445 -0.055138569 0.42234322 10198675
0.035234924 -0.054936338 0.42155752 10198931
0.045183524 -0.055028003 0.42149317 10133907
0.054960325 -0.054669153 0.42118257 10199958
0.064969219 -0.054829672 0.42106059 10266264
0.07474687 -0.054339323 0.42094284 10267034
0.084669627 -0.053783175 0.42084306 10332828
0.09470088 -0.052977674 0.42070866 10333085
0.10460259 -0.052694418 0.42065021 10202013
0.11396498 -0.051658146 0.42033011 10267550
0.1242206 -0.050529201 0.42014265 10267550
-0.25167441 -0.049247868 0.42981127 6331846
-0.24465978 -0.048027072 0.42949682 6331846
-0.2348755 -0.046106115 0.42894551 11648436
-0.22485952 -0.046049811 0.428637 11714228
-0.21478698 -0.045813814 0.4282949 11648692
-0.20497903 -0.045330577 0.42817369 11451571
-0.19498652 -0.044930436 0.42771894 11517107
-0.18503959 -0.044814151 0.42781803 11451313
-0.17496648 -0.044788018 0.42777225 11451313
-0.16485991 -0.044763498 0.42779291 11320240
-0.15497835 -0.044956397 0.42786574 11319983
-0.14504752 -0.045445755 0.42777637 11188398
-0.13503186 -0.04528616 0.42794099 11123117
-0.1249504 -0.045096528 0.42795423 11122604
-0.11509006 -0.045216084 0.4278101 11122602
-0.10507651 -0.045110874 0.42773446 10991016
-0.094948202 -0.045014676 0.42765683 11056040
-0.084853366 -0.044976238 0.42768764 10859174
-0.074808963 -0.044890918 0.42757401 10792867
-0.06477797 -0.044810265 0.42700869 10792352
-0.054800142 -0.044850193 0.4270435 10660510
-0.044644199 -0.044946555 0.42637217 10594459
-0.034729518 -0.045167863 0.42572129 10198672
-0.025597949 -0.045334589 0.42517895 9671558
0.024756206 -0.04495116 0.42377329 10396051
0.034843471 -0.045045827 0.42367136 10330259
0.04515563 -0.044888169 0.42373779 10133392
0.055234827 -0.044921689 0.42335036 10068371
0.065237775 -0.044997871 0.42336652 10068629
0.075168177 -0.04500322 0.42300504 10135192
0.085176662 -0.045042057 0.42290077 10201499
0.095175475 -0.04506411 0.42257142 10070427
0.10511006 -0.045221653 0.42239428 10070683
0.11503143 -0.045142807 0.42206767 10005147
0.12490632 -0.044938669 0.42154884 10201757
0.13481696 -0.044359695 0.42135268 10070429
0.14492355 -0.044245578 0.42121071 10070684
0.15443185 -0.043171033 0.42074913 10135965
0.16534621 -0.041965112 0.42056906 10201758
0.17409597 -0.041856021 0.42038909 10070686
0.18565463 -0.041682381 0.4204033 10070684
0.19462469 -0.042882904 0.42059121 10202270
0.20440632 -0.041373711 0.42029202 8496555
0.21437155 -0.041207388 0.42038518 6331846
0.2253266 -0.041310206 0.42039064 6331846
0.23421013 -0.041541666 0.42055842 6331846
0.24859414 -0.041014437 0.42039257 6331846
-0.20125212 -0.039584622 0.42982906 11583157
-0.19450122 -0.038431268 0.42953059 11386290
-0.18484755 -0.037771802 0.42942294 11451826
